nan,0.000000000000000000e+00,0.000000000000000000e+00,0.000000000000000000e+00,0.000000000000000000e+00,0.000000000000000000e+00,0.000000000000000000e+00,0.000000000000000000e+00,0.000000000000000000e+00,0.000000000000000000e+00,0.000000000000000000e+00,0.000000000000000000e+00,0.000000000000000000e+00,0.000000000000000000e+00,0.000000000000000000e+00,0.000000000000000000e+00,0.000000000000000000e+00,0.000000000000000000e+00,0.000000000000000000e+00,0.000000000000000000e+00,0.000000000000000000e+00,0.000000000000000000e+00,0.000000000000000000e+00,0.000000000000000000e+00,0.000000000000000000e+00,0.000000000000000000e+00,0.000000000000000000e+00,0.000000000000000000e+00,0.000000000000000000e+00,0.000000000000000000e+00,0.000000000000000000e+00,0.000000000000000000e+00,0.000000000000000000e+00,0.000000000000000000e+00,0.000000000000000000e+00,0.000000000000000000e+00,0.000000000000000000e+00,0.000000000000000000e+00,0.000000000000000000e+00,0.000000000000000000e+00,0.000000000000000000e+00,0.000000000000000000e+00,0.000000000000000000e+00,0.000000000000000000e+00,0.000000000000000000e+00,1.956344700088733235e-01,2.698210009781178975e-01,2.676474596641413295e-01,2.641065145238085110e-01,2.630560070869772393e-01,2.600784271449532725e-01,2.627465071767348670e-01,2.615669198404572127e-01,2.597932772103045407e-01,1.379295297141052423e-01,0.000000000000000000e+00,0.000000000000000000e+00,0.000000000000000000e+00,0.000000000000000000e+00,0.000000000000000000e+00,0.000000000000000000e+00,0.000000000000000000e+00,0.000000000000000000e+00,0.000000000000000000e+00,0.000000000000000000e+00,0.000000000000000000e+00,0.000000000000000000e+00,0.000000000000000000e+00,0.000000000000000000e+00,0.000000000000000000e+00,0.000000000000000000e+00,0.000000000000000000e+00,0.000000000000000000e+00,0.000000000000000000e+00,0.000000000000000000e+00,0.000000000000000000e+00,0.000000000000000000e+00,0.000000000000000000e+00,0.000000000000000000e+00,0.000000000000000000e+00,0.000000000000000000e+00,0.000000000000000000e+00,0.000000000000000000e+00,0.000000000000000000e+00,0.000000000000000000e+00,0.000000000000000000e+00,0.000000000000000000e+00,0.000000000000000000e+00,0.000000000000000000e+00,0.000000000000000000e+00,0.000000000000000000e+00,0.000000000000000000e+00,0.000000000000000000e+00,0.000000000000000000e+00,0.000000000000000000e+00,0.000000000000000000e+00,0.000000000000000000e+00,0.000000000000000000e+00,0.000000000000000000e+00,nan
nan,0.000000000000000000e+00,0.000000000000000000e+00,0.000000000000000000e+00,0.000000000000000000e+00,0.000000000000000000e+00,0.000000000000000000e+00,0.000000000000000000e+00,0.000000000000000000e+00,0.000000000000000000e+00,0.000000000000000000e+00,0.000000000000000000e+00,0.000000000000000000e+00,0.000000000000000000e+00,0.000000000000000000e+00,0.000000000000000000e+00,0.000000000000000000e+00,0.000000000000000000e+00,0.000000000000000000e+00,0.000000000000000000e+00,0.000000000000000000e+00,0.000000000000000000e+00,0.000000000000000000e+00,0.000000000000000000e+00,0.000000000000000000e+00,0.000000000000000000e+00,0.000000000000000000e+00,0.000000000000000000e+00,0.000000000000000000e+00,0.000000000000000000e+00,0.000000000000000000e+00,0.000000000000000000e+00,0.000000000000000000e+00,0.000000000000000000e+00,0.000000000000000000e+00,0.000000000000000000e+00,0.000000000000000000e+00,0.000000000000000000e+00,0.000000000000000000e+00,0.000000000000000000e+00,0.000000000000000000e+00,0.000000000000000000e+00,0.000000000000000000e+00,0.000000000000000000e+00,0.000000000000000000e+00,4.381092842364600615e-02,2.647925366401102654e-01,2.654810122444856146e-01,2.661116251767441376e-01,2.649892875746997500e-01,2.651989101675982230e-01,2.654928230230658714e-01,2.641027822696262461e-01,2.633805590433827004e-01,1.756347384837066705e-01,0.000000000000000000e+00,0.000000000000000000e+00,0.000000000000000000e+00,0.000000000000000000e+00,0.000000000000000000e+00,0.000000000000000000e+00,0.000000000000000000e+00,0.000000000000000000e+00,0.000000000000000000e+00,0.000000000000000000e+00,0.000000000000000000e+00,0.000000000000000000e+00,0.000000000000000000e+00,0.000000000000000000e+00,0.000000000000000000e+00,0.000000000000000000e+00,0.000000000000000000e+00,0.000000000000000000e+00,0.000000000000000000e+00,0.000000000000000000e+00,0.000000000000000000e+00,0.000000000000000000e+00,0.000000000000000000e+00,0.000000000000000000e+00,0.000000000000000000e+00,0.000000000000000000e+00,0.000000000000000000e+00,0.000000000000000000e+00,0.000000000000000000e+00,0.000000000000000000e+00,0.000000000000000000e+00,0.000000000000000000e+00,0.000000000000000000e+00,0.000000000000000000e+00,0.000000000000000000e+00,0.000000000000000000e+00,0.000000000000000000e+00,0.000000000000000000e+00,0.000000000000000000e+00,0.000000000000000000e+00,0.000000000000000000e+00,0.000000000000000000e+00,0.000000000000000000e+00,0.000000000000000000e+00,nan
nan,0.000000000000000000e+00,0.000000000000000000e+00,0.000000000000000000e+00,0.000000000000000000e+00,0.000000000000000000e+00,0.000000000000000000e+00,0.000000000000000000e+00,0.000000000000000000e+00,0.000000000000000000e+00,0.000000000000000000e+00,0.000000000000000000e+00,0.000000000000000000e+00,0.000000000000000000e+00,0.000000000000000000e+00,0.000000000000000000e+00,0.000000000000000000e+00,0.000000000000000000e+00,0.000000000000000000e+00,0.000000000000000000e+00,0.000000000000000000e+00,0.000000000000000000e+00,0.000000000000000000e+00,0.000000000000000000e+00,0.000000000000000000e+00,0.000000000000000000e+00,0.000000000000000000e+00,0.000000000000000000e+00,0.000000000000000000e+00,0.000000000000000000e+00,0.000000000000000000e+00,0.000000000000000000e+00,0.000000000000000000e+00,0.000000000000000000e+00,0.000000000000000000e+00,0.000000000000000000e+00,0.000000000000000000e+00,0.000000000000000000e+00,0.000000000000000000e+00,0.000000000000000000e+00,0.000000000000000000e+00,0.000000000000000000e+00,0.000000000000000000e+00,0.000000000000000000e+00,0.000000000000000000e+00,1.971545389914259316e-01,2.598355733227005748e-01,2.669403204623020387e-01,2.677822309781848764e-01,2.687175404602098472e-01,2.696831767860018991e-01,2.716012247220581100e-01,2.717967114031411002e-01,2.702442328076960498e-01,9.544765418431191972e-02,0.000000000000000000e+00,0.000000000000000000e+00,0.000000000000000000e+00,0.000000000000000000e+00,0.000000000000000000e+00,0.000000000000000000e+00,0.000000000000000000e+00,0.000000000000000000e+00,0.000000000000000000e+00,0.000000000000000000e+00,0.000000000000000000e+00,0.000000000000000000e+00,0.000000000000000000e+00,0.000000000000000000e+00,0.000000000000000000e+00,0.000000000000000000e+00,0.000000000000000000e+00,0.000000000000000000e+00,0.000000000000000000e+00,0.000000000000000000e+00,0.000000000000000000e+00,0.000000000000000000e+00,0.000000000000000000e+00,0.000000000000000000e+00,0.000000000000000000e+00,0.000000000000000000e+00,0.000000000000000000e+00,0.000000000000000000e+00,0.000000000000000000e+00,0.000000000000000000e+00,0.000000000000000000e+00,0.000000000000000000e+00,0.000000000000000000e+00,0.000000000000000000e+00,0.000000000000000000e+00,0.000000000000000000e+00,0.000000000000000000e+00,0.000000000000000000e+00,0.000000000000000000e+00,0.000000000000000000e+00,0.000000000000000000e+00,0.000000000000000000e+00,0.000000000000000000e+00,0.000000000000000000e+00,nan
nan,0.000000000000000000e+00,0.000000000000000000e+00,0.000000000000000000e+00,0.000000000000000000e+00,0.000000000000000000e+00,0.000000000000000000e+00,0.000000000000000000e+00,0.000000000000000000e+00,0.000000000000000000e+00,0.000000000000000000e+00,0.000000000000000000e+00,0.000000000000000000e+00,0.000000000000000000e+00,0.000000000000000000e+00,0.000000000000000000e+00,0.000000000000000000e+00,0.000000000000000000e+00,0.000000000000000000e+00,0.000000000000000000e+00,0.000000000000000000e+00,0.000000000000000000e+00,0.000000000000000000e+00,0.000000000000000000e+00,0.000000000000000000e+00,0.000000000000000000e+00,0.000000000000000000e+00,0.000000000000000000e+00,0.000000000000000000e+00,0.000000000000000000e+00,0.000000000000000000e+00,0.000000000000000000e+00,0.000000000000000000e+00,0.000000000000000000e+00,0.000000000000000000e+00,0.000000000000000000e+00,0.000000000000000000e+00,0.000000000000000000e+00,0.000000000000000000e+00,0.000000000000000000e+00,0.000000000000000000e+00,0.000000000000000000e+00,0.000000000000000000e+00,0.000000000000000000e+00,0.000000000000000000e+00,1.180126097958930920e-01,2.704377543989573418e-01,2.709945855170337037e-01,2.731463899203881440e-01,2.747174188178916343e-01,2.777573314511371794e-01,2.785140064417336303e-01,2.783550285147524672e-01,2.796101529841162336e-01,2.005448626301749582e-01,0.000000000000000000e+00,0.000000000000000000e+00,0.000000000000000000e+00,0.000000000000000000e+00,0.000000000000000000e+00,0.000000000000000000e+00,0.000000000000000000e+00,0.000000000000000000e+00,0.000000000000000000e+00,0.000000000000000000e+00,0.000000000000000000e+00,0.000000000000000000e+00,0.000000000000000000e+00,0.000000000000000000e+00,0.000000000000000000e+00,0.000000000000000000e+00,0.000000000000000000e+00,0.000000000000000000e+00,0.000000000000000000e+00,0.000000000000000000e+00,0.000000000000000000e+00,0.000000000000000000e+00,0.000000000000000000e+00,0.000000000000000000e+00,0.000000000000000000e+00,0.000000000000000000e+00,0.000000000000000000e+00,0.000000000000000000e+00,0.000000000000000000e+00,0.000000000000000000e+00,0.000000000000000000e+00,0.000000000000000000e+00,0.000000000000000000e+00,0.000000000000000000e+00,0.000000000000000000e+00,0.000000000000000000e+00,0.000000000000000000e+00,0.000000000000000000e+00,0.000000000000000000e+00,0.000000000000000000e+00,0.000000000000000000e+00,0.000000000000000000e+00,0.000000000000000000e+00,0.000000000000000000e+00,nan
nan,0.000000000000000000e+00,0.000000000000000000e+00,0.000000000000000000e+00,0.000000000000000000e+00,0.000000000000000000e+00,0.000000000000000000e+00,0.000000000000000000e+00,0.000000000000000000e+00,0.000000000000000000e+00,0.000000000000000000e+00,0.000000000000000000e+00,0.000000000000000000e+00,0.000000000000000000e+00,0.000000000000000000e+00,0.000000000000000000e+00,0.000000000000000000e+00,0.000000000000000000e+00,0.000000000000000000e+00,0.000000000000000000e+00,0.000000000000000000e+00,0.000000000000000000e+00,0.000000000000000000e+00,0.000000000000000000e+00,0.000000000000000000e+00,0.000000000000000000e+00,0.000000000000000000e+00,0.000000000000000000e+00,0.000000000000000000e+00,0.000000000000000000e+00,0.000000000000000000e+00,0.000000000000000000e+00,0.000000000000000000e+00,0.000000000000000000e+00,0.000000000000000000e+00,0.000000000000000000e+00,0.000000000000000000e+00,0.000000000000000000e+00,0.000000000000000000e+00,0.000000000000000000e+00,0.000000000000000000e+00,0.000000000000000000e+00,0.000000000000000000e+00,0.000000000000000000e+00,0.000000000000000000e+00,1.720310461089184229e-01,2.801765866361914381e-01,2.775075362595072481e-01,2.789949257775539149e-01,2.811381059376821812e-01,2.840045989687282613e-01,2.859402861293373066e-01,2.867591661829776983e-01,2.893328911693322514e-01,1.738314382879087294e-01,0.000000000000000000e+00,0.000000000000000000e+00,0.000000000000000000e+00,0.000000000000000000e+00,0.000000000000000000e+00,0.000000000000000000e+00,0.000000000000000000e+00,0.000000000000000000e+00,0.000000000000000000e+00,0.000000000000000000e+00,0.000000000000000000e+00,0.000000000000000000e+00,0.000000000000000000e+00,0.000000000000000000e+00,0.000000000000000000e+00,0.000000000000000000e+00,0.000000000000000000e+00,0.000000000000000000e+00,0.000000000000000000e+00,0.000000000000000000e+00,0.000000000000000000e+00,0.000000000000000000e+00,0.000000000000000000e+00,0.000000000000000000e+00,0.000000000000000000e+00,0.000000000000000000e+00,0.000000000000000000e+00,0.000000000000000000e+00,0.000000000000000000e+00,0.000000000000000000e+00,0.000000000000000000e+00,0.000000000000000000e+00,0.000000000000000000e+00,0.000000000000000000e+00,0.000000000000000000e+00,0.000000000000000000e+00,0.000000000000000000e+00,0.000000000000000000e+00,0.000000000000000000e+00,0.000000000000000000e+00,0.000000000000000000e+00,0.000000000000000000e+00,0.000000000000000000e+00,0.000000000000000000e+00,nan
nan,0.000000000000000000e+00,0.000000000000000000e+00,0.000000000000000000e+00,0.000000000000000000e+00,0.000000000000000000e+00,0.000000000000000000e+00,0.000000000000000000e+00,0.000000000000000000e+00,0.000000000000000000e+00,0.000000000000000000e+00,0.000000000000000000e+00,0.000000000000000000e+00,0.000000000000000000e+00,0.000000000000000000e+00,0.000000000000000000e+00,0.000000000000000000e+00,0.000000000000000000e+00,0.000000000000000000e+00,0.000000000000000000e+00,0.000000000000000000e+00,0.000000000000000000e+00,0.000000000000000000e+00,0.000000000000000000e+00,0.000000000000000000e+00,0.000000000000000000e+00,0.000000000000000000e+00,0.000000000000000000e+00,0.000000000000000000e+00,0.000000000000000000e+00,0.000000000000000000e+00,0.000000000000000000e+00,0.000000000000000000e+00,0.000000000000000000e+00,0.000000000000000000e+00,0.000000000000000000e+00,0.000000000000000000e+00,0.000000000000000000e+00,0.000000000000000000e+00,0.000000000000000000e+00,0.000000000000000000e+00,0.000000000000000000e+00,0.000000000000000000e+00,0.000000000000000000e+00,0.000000000000000000e+00,1.041182895263589037e-01,2.433163315120177583e-01,2.842681429596053966e-01,2.846257123536830580e-01,2.875437567310762943e-01,2.891128898694100835e-01,2.913451750809490925e-01,2.960275361249503634e-01,3.014577444466292055e-01,1.274725462922285113e-01,0.000000000000000000e+00,0.000000000000000000e+00,0.000000000000000000e+00,0.000000000000000000e+00,0.000000000000000000e+00,0.000000000000000000e+00,0.000000000000000000e+00,0.000000000000000000e+00,0.000000000000000000e+00,0.000000000000000000e+00,0.000000000000000000e+00,0.000000000000000000e+00,0.000000000000000000e+00,0.000000000000000000e+00,0.000000000000000000e+00,0.000000000000000000e+00,0.000000000000000000e+00,0.000000000000000000e+00,0.000000000000000000e+00,0.000000000000000000e+00,0.000000000000000000e+00,0.000000000000000000e+00,0.000000000000000000e+00,0.000000000000000000e+00,0.000000000000000000e+00,0.000000000000000000e+00,0.000000000000000000e+00,0.000000000000000000e+00,0.000000000000000000e+00,0.000000000000000000e+00,0.000000000000000000e+00,0.000000000000000000e+00,0.000000000000000000e+00,0.000000000000000000e+00,0.000000000000000000e+00,0.000000000000000000e+00,0.000000000000000000e+00,0.000000000000000000e+00,0.000000000000000000e+00,0.000000000000000000e+00,0.000000000000000000e+00,0.000000000000000000e+00,0.000000000000000000e+00,0.000000000000000000e+00,nan
nan,0.000000000000000000e+00,0.000000000000000000e+00,0.000000000000000000e+00,0.000000000000000000e+00,0.000000000000000000e+00,0.000000000000000000e+00,0.000000000000000000e+00,0.000000000000000000e+00,0.000000000000000000e+00,0.000000000000000000e+00,0.000000000000000000e+00,0.000000000000000000e+00,0.000000000000000000e+00,0.000000000000000000e+00,0.000000000000000000e+00,0.000000000000000000e+00,0.000000000000000000e+00,0.000000000000000000e+00,0.000000000000000000e+00,0.000000000000000000e+00,0.000000000000000000e+00,0.000000000000000000e+00,0.000000000000000000e+00,0.000000000000000000e+00,0.000000000000000000e+00,0.000000000000000000e+00,0.000000000000000000e+00,0.000000000000000000e+00,0.000000000000000000e+00,0.000000000000000000e+00,0.000000000000000000e+00,0.000000000000000000e+00,0.000000000000000000e+00,0.000000000000000000e+00,0.000000000000000000e+00,0.000000000000000000e+00,0.000000000000000000e+00,0.000000000000000000e+00,0.000000000000000000e+00,0.000000000000000000e+00,0.000000000000000000e+00,0.000000000000000000e+00,0.000000000000000000e+00,0.000000000000000000e+00,1.658036660834373011e-01,2.918653561428896648e-01,2.958186677487213978e-01,2.952253696762073831e-01,2.963236568892837486e-01,2.975484084493656423e-01,2.961104656332984586e-01,2.950324893347214816e-01,2.938577533580976064e-01,1.702641070413871693e-01,0.000000000000000000e+00,0.000000000000000000e+00,0.000000000000000000e+00,0.000000000000000000e+00,0.000000000000000000e+00,0.000000000000000000e+00,0.000000000000000000e+00,0.000000000000000000e+00,0.000000000000000000e+00,0.000000000000000000e+00,0.000000000000000000e+00,0.000000000000000000e+00,0.000000000000000000e+00,0.000000000000000000e+00,0.000000000000000000e+00,0.000000000000000000e+00,0.000000000000000000e+00,0.000000000000000000e+00,0.000000000000000000e+00,0.000000000000000000e+00,0.000000000000000000e+00,0.000000000000000000e+00,0.000000000000000000e+00,0.000000000000000000e+00,0.000000000000000000e+00,0.000000000000000000e+00,0.000000000000000000e+00,0.000000000000000000e+00,0.000000000000000000e+00,0.000000000000000000e+00,0.000000000000000000e+00,0.000000000000000000e+00,0.000000000000000000e+00,0.000000000000000000e+00,0.000000000000000000e+00,0.000000000000000000e+00,0.000000000000000000e+00,0.000000000000000000e+00,0.000000000000000000e+00,0.000000000000000000e+00,0.000000000000000000e+00,0.000000000000000000e+00,0.000000000000000000e+00,0.000000000000000000e+00,nan
nan,0.000000000000000000e+00,0.000000000000000000e+00,0.000000000000000000e+00,0.000000000000000000e+00,0.000000000000000000e+00,0.000000000000000000e+00,0.000000000000000000e+00,0.000000000000000000e+00,0.000000000000000000e+00,0.000000000000000000e+00,0.000000000000000000e+00,0.000000000000000000e+00,0.000000000000000000e+00,0.000000000000000000e+00,0.000000000000000000e+00,0.000000000000000000e+00,5.900885815242566668e-02,5.068131950196733820e-02,0.000000000000000000e+00,0.000000000000000000e+00,0.000000000000000000e+00,0.000000000000000000e+00,0.000000000000000000e+00,0.000000000000000000e+00,0.000000000000000000e+00,0.000000000000000000e+00,0.000000000000000000e+00,0.000000000000000000e+00,0.000000000000000000e+00,0.000000000000000000e+00,0.000000000000000000e+00,4.544685913989206932e-02,0.000000000000000000e+00,0.000000000000000000e+00,0.000000000000000000e+00,0.000000000000000000e+00,0.000000000000000000e+00,0.000000000000000000e+00,0.000000000000000000e+00,0.000000000000000000e+00,0.000000000000000000e+00,0.000000000000000000e+00,0.000000000000000000e+00,0.000000000000000000e+00,1.601934398602402609e-01,3.045577633385356253e-01,3.078922317133565567e-01,3.083832684818701431e-01,3.089441330528654439e-01,3.085268071729151407e-01,3.069512329512877891e-01,3.060763480502050049e-01,2.957447187363109742e-01,2.905740241517172362e-01,0.000000000000000000e+00,5.945203760943863075e-02,5.850346794100087094e-02,0.000000000000000000e+00,0.000000000000000000e+00,0.000000000000000000e+00,0.000000000000000000e+00,0.000000000000000000e+00,0.000000000000000000e+00,0.000000000000000000e+00,0.000000000000000000e+00,0.000000000000000000e+00,0.000000000000000000e+00,0.000000000000000000e+00,0.000000000000000000e+00,0.000000000000000000e+00,0.000000000000000000e+00,4.981581059726761240e-02,0.000000000000000000e+00,0.000000000000000000e+00,4.821063383483706333e-02,0.000000000000000000e+00,0.000000000000000000e+00,0.000000000000000000e+00,0.000000000000000000e+00,0.000000000000000000e+00,0.000000000000000000e+00,7.926934433563475116e-03,0.000000000000000000e+00,0.000000000000000000e+00,0.000000000000000000e+00,0.000000000000000000e+00,0.000000000000000000e+00,7.190422036891798777e-03,0.000000000000000000e+00,2.909437020462217471e-02,0.000000000000000000e+00,0.000000000000000000e+00,2.028903060863105831e-02,0.000000000000000000e+00,0.000000000000000000e+00,0.000000000000000000e+00,0.000000000000000000e+00,0.000000000000000000e+00,nan
nan,3.696625161314377739e-02,5.888629276141250923e-02,1.944541640522858689e-02,1.608446627144322072e-02,3.187793009981693820e-02,4.728823218108568760e-02,4.366612029962663871e-02,9.760026963522937249e-02,1.355921591002130500e-01,3.541282149431619619e-02,1.381808271124047027e-01,2.292845869279873036e-02,1.880639693889889219e-01,1.290870149058693794e-01,9.145895077025557873e-02,1.444648623706250856e-01,1.828022649872730887e-01,2.245371661588313472e-01,1.485375722833510159e-01,1.044342698160896366e-01,1.381178934014755944e-01,2.500075439286088622e-02,1.398071254752623893e-01,1.199489538674506084e-01,1.353867322885042579e-01,1.095997738319905018e-01,2.172253112907941985e-01,2.328204861326972352e-01,1.524463904684305038e-01,1.427028117647288208e-01,2.379745093731341632e-01,2.212808668885380137e-01,3.525404143014343461e-02,1.895875725062068917e-01,9.556122534271123403e-02,7.530318611458934608e-02,1.251253376897012992e-02,8.038238317100629415e-02,4.458357939441564416e-02,1.225312087324424148e-01,1.341547483530156071e-01,5.421169210401810545e-02,1.666535107216070011e-01,1.949643810535154065e-01,2.885774747358348380e-01,3.127465760689934204e-01,3.176858061964533131e-01,3.164496520004204116e-01,3.202411652723461954e-01,3.188131798479775236e-01,3.166281690457032338e-01,3.141066510792827060e-01,3.082263007274602673e-01,3.073416973169604827e-01,1.890272998840733243e-01,2.700010651648907523e-01,6.185475554154386268e-02,1.567348150514981941e-01,1.998335548616682056e-01,2.597770142217278311e-01,2.408480222793405179e-01,1.377752441544525253e-01,4.351324615592438300e-02,4.224622369706304559e-02,6.627392806475400355e-02,1.939613931900008581e-01,1.535004692030834395e-01,4.348633566883435692e-02,1.451797135959477236e-01,1.802202832330566107e-01,1.057567245195980277e-01,1.935477630170775454e-01,1.128033449645869102e-01,1.946754442654677897e-01,1.192792001201016250e-01,8.469569143399216515e-02,9.288022381518240556e-02,1.659831815987405645e-01,2.006839382649317285e-02,1.812853482154778983e-01,6.843400657582704438e-02,1.392535181263231392e-01,5.364110119261111809e-02,1.381890924481394001e-01,1.442154176273208743e-01,1.132221040896499720e-01,1.667803938773400607e-01,1.322690865982844299e-01,1.570758412947485527e-01,1.462466259632062837e-01,1.155222830641873949e-01,6.130222739831124590e-03,1.169115914191229538e-01,5.360319701119184432e-02,9.642764671613973659e-02,1.012593275255722625e-01,3.428811033055005619e-02,1.015037703453867610e-02,nan
nan,6.479798624549623631e-02,9.094090702532070525e-02,9.165891843234921788e-02,1.375250797300794359e-01,1.539003986425643844e-01,1.621124482189198468e-01,1.710321080297778906e-01,1.785587831618228871e-01,1.860779932707194440e-01,1.664767693619476074e-01,1.966133320836368492e-01,2.006075006279106065e-01,2.178218485718199093e-01,2.228639958681857824e-01,2.265491956387488681e-01,2.309345829128511274e-01,2.348792447605685951e-01,2.376304256742237664e-01,2.403067908828852572e-01,2.430697835840485710e-01,2.483330805072800074e-01,2.529356853939921934e-01,2.584332221585420863e-01,2.626244488454729797e-01,2.658512271984625475e-01,2.680726231152033012e-01,2.710267431112035608e-01,2.731506024561602963e-01,2.751453499819762061e-01,2.774683975293920080e-01,2.796098166320941103e-01,2.807728232884365016e-01,2.843960360258517839e-01,2.863120315609534172e-01,2.880915256159595761e-01,2.357703623494292744e-01,2.925811611861664496e-01,2.694312041129451885e-01,2.960172536608002836e-01,2.973934333108382844e-01,2.823044805632791698e-01,2.457877897348679508e-01,3.032089866493684616e-01,3.056945791857905714e-01,3.084850274883184085e-01,3.128654470745222960e-01,3.148216257089160863e-01,3.161059098297354097e-01,3.168163095930416895e-01,3.167695935390215656e-01,3.152431565142415071e-01,3.130751179211185842e-01,3.108738374612755040e-01,3.085040997234302917e-01,3.061251568578363114e-01,3.028808928884211826e-01,1.776732194239536711e-01,2.972353212562773850e-01,2.965683679534819595e-01,2.951537918097686952e-01,2.936649707239601392e-01,2.922836825585390930e-01,2.896672386267646893e-01,2.885063530833839041e-01,2.865564353645449480e-01,2.837930444434301203e-01,2.818158576154194406e-01,2.801961063147527797e-01,2.699541817309082936e-01,2.748366687445388257e-01,2.733906269121936239e-01,2.414813700197160906e-01,2.660585854289584384e-01,2.635090435041491097e-01,2.548621658934417389e-01,2.555361120363899841e-01,2.529835326389439643e-01,2.512207140851098197e-01,2.227215809403186586e-01,2.393629397154558303e-01,2.348274266818460854e-01,2.060492864900859977e-01,2.253311371567738586e-01,2.202227623305343940e-01,2.141725976524864183e-01,2.085002046167550860e-01,2.040867208894455720e-01,1.974394398717546628e-01,1.927887798039535083e-01,1.876273314506113621e-01,1.829520618605523230e-01,1.606561527685084756e-01,1.563242182624070831e-01,1.466791730426759144e-01,1.379494675153724870e-01,1.297750921969376414e-01,1.073708889593655430e-01,6.166795736179425669e-02,nan
nan,6.634977034456038258e-02,9.873581298373496073e-02,1.200532188860459482e-01,1.403436526322454636e-01,1.532575457420913834e-01,1.624266333200044543e-01,1.718351106073905121e-01,1.800234491323997044e-01,1.859741159204325589e-01,1.922559451017679943e-01,1.991512867597815539e-01,2.067304726551345839e-01,2.155725910437785442e-01,2.217494903113627347e-01,2.264305640933142461e-01,2.306126420283314826e-01,2.344979994039604887e-01,2.378105535546644056e-01,2.411366380414157184e-01,2.446025777654909916e-01,2.486790298523531562e-01,2.538729552743961282e-01,2.578758764863656183e-01,2.617707769067483259e-01,2.650078610555596237e-01,2.678750928211836024e-01,2.707975784027860100e-01,2.729605469870851620e-01,2.753204239960251321e-01,2.774659779347993238e-01,2.794954173013636245e-01,2.814324765894118952e-01,2.837811440426651899e-01,2.861131098571247922e-01,2.879689300801590579e-01,2.900134267890238648e-01,2.920645866450225503e-01,2.938191461847999841e-01,2.953669511046421170e-01,2.970180634922846008e-01,2.987602299807259887e-01,3.004631301082614780e-01,3.023373086496859430e-01,3.042389692856224959e-01,3.069046355057406528e-01,3.087703348254361435e-01,3.107360542744210807e-01,3.119780738634136408e-01,3.126584144029264101e-01,3.125825555330742356e-01,3.115539883320838088e-01,3.103448829261519770e-01,3.084826452752597037e-01,3.066805323836196417e-01,3.046236641926289290e-01,3.019313911975163855e-01,2.995801612842864392e-01,2.972946559127259691e-01,2.960882132822149071e-01,2.948152154636485278e-01,2.936340372465703341e-01,2.917166854045486479e-01,2.897544123953842421e-01,2.878024427597885015e-01,2.859610247918427106e-01,2.839537050921366323e-01,2.818754179035434237e-01,2.795622009240460448e-01,2.773544162937766622e-01,2.749779181311505782e-01,2.720813438955106967e-01,2.691049780334573982e-01,2.660106642674540667e-01,2.633711640239225771e-01,2.598113984805981991e-01,2.565054489224112277e-01,2.533627457624767487e-01,2.502708439274266561e-01,2.463670465912655982e-01,2.410082478930936078e-01,2.357172461864832091e-01,2.309310794875834572e-01,2.260356969263306315e-01,2.203712083591250481e-01,2.160670631313895973e-01,2.095260300189452363e-01,2.036445528824856466e-01,1.983389533104025770e-01,1.930900554397941560e-01,1.878124534495422826e-01,1.809560168302380423e-01,1.713684990493630766e-01,1.603154501640099150e-01,1.490512912806282730e-01,1.388011642890771280e-01,1.280911949619316648e-01,1.098112376733697548e-01,7.035801579014216989e-02,nan
nan,6.873138263904327028e-02,1.021921216564589396e-01,1.247987936505338957e-01,1.421140172821938885e-01,1.533730833060322207e-01,1.633658703091180053e-01,1.722060242855713019e-01,1.801588492523094054e-01,1.871365399297755805e-01,1.939269756334081607e-01,2.007179224136894369e-01,2.091111401415430004e-01,2.156467071468133323e-01,2.211478915982408033e-01,2.262780759068776237e-01,2.306383598157089321e-01,2.346970690825370687e-01,2.383335459275634227e-01,2.419259417194787321e-01,2.457160026316868584e-01,2.499326747467178755e-01,2.542455373520860484e-01,2.579810952752366604e-01,2.616926093053615343e-01,2.648915803739879116e-01,2.677594645120641159e-01,2.704048600502812483e-01,2.728930853647173471e-01,2.751808340972701217e-01,2.773851515514731414e-01,2.794407630319573621e-01,2.813992473577278108e-01,2.839779637324102990e-01,2.857149039038641147e-01,2.876304510472914577e-01,2.896087856784756998e-01,2.914212412706850275e-01,2.931749430999524009e-01,2.946691867034047507e-01,2.962541283464093511e-01,2.978589194478633018e-01,2.995548013415672006e-01,3.013122014500781987e-01,3.029832491245893489e-01,3.047179253303894941e-01,3.066640324284939378e-01,3.078977851613653449e-01,3.087304584954418396e-01,3.090786168196002492e-01,3.090580152630186817e-01,3.083728136253827135e-01,3.074035976397433423e-01,3.062233965855834517e-01,3.046342211461266491e-01,3.028157062524072796e-01,3.009480750700559981e-01,2.989384834038397165e-01,2.970011537640716015e-01,2.956332732020443554e-01,2.941246911972815736e-01,2.926836543291634896e-01,2.911033467545163234e-01,2.893616721896613564e-01,2.875825496174715390e-01,2.856793104528631000e-01,2.836670403008531016e-01,2.815425017685735942e-01,2.793512081933386959e-01,2.771596004670957569e-01,2.748328966087699166e-01,2.720295554063021370e-01,2.693029140726019288e-01,2.662457726226846177e-01,2.632024994452989430e-01,2.599828866551682216e-01,2.566717504161830643e-01,2.534910751420277886e-01,2.500337564054905815e-01,2.462512751396341293e-01,2.415949370697805798e-01,2.367690841625623155e-01,2.320727231618370523e-01,2.270317957998399250e-01,2.215144098051187449e-01,2.164572123286031546e-01,2.106950098779502289e-01,2.048706303963173658e-01,1.991253797324916142e-01,1.932599833949498747e-01,1.871408135235699821e-01,1.800091676415221109e-01,1.716284753269349816e-01,1.616624295052743743e-01,1.514542482506670562e-01,1.402330390686955808e-01,1.272871319412599567e-01,1.072786202914929599e-01,7.251145547084079934e-02,nan
nan,7.272103001744199824e-02,1.066143579583866130e-01,1.274461555734813234e-01,1.424109531428432440e-01,1.542751376283854059e-01,1.642142943613282835e-01,1.729270188831933674e-01,1.809049520527409860e-01,1.882071461023906433e-01,1.953481596769056083e-01,2.023009107263445683e-01,2.092667992282867262e-01,2.156340220945630604e-01,2.212860286113964570e-01,2.262481847634282284e-01,2.307831344363077408e-01,2.349232912870962697e-01,2.387320704752192713e-01,2.424778090712200740e-01,2.464219249716828319e-01,2.503791803675405880e-01,2.543956904649561368e-01,2.581135797373997898e-01,2.614468951106112549e-01,2.646016119796842925e-01,2.674475139447014538e-01,2.700641463912681894e-01,2.724701070693015259e-01,2.748202959799849188e-01,2.770270434010249083e-01,2.790262159395861530e-01,2.813011581952406526e-01,2.832642857834311023e-01,2.852483250871655773e-01,2.870769866718997365e-01,2.889201512669271610e-01,2.905049877430843641e-01,2.921835032852088121e-01,2.936598060224701046e-01,2.951185963201373719e-01,2.966644097694636217e-01,2.982126832798205340e-01,2.996932255903609343e-01,3.011965643337236043e-01,3.025977771535894312e-01,3.038726025552444532e-01,3.048574504974559951e-01,3.055271167235286134e-01,3.058059153194354063e-01,3.057305498738287497e-01,3.052753731427482187e-01,3.045768465942025327e-01,3.035897725960687299e-01,3.023361428495314751e-01,3.009683189431346384e-01,2.993206010475437662e-01,2.976670373684381365e-01,2.960626482689666106e-01,2.946285073035883606e-01,2.930808561943927248e-01,2.916938982713336292e-01,2.902164247793300178e-01,2.886048151925421079e-01,2.868398767783685854e-01,2.850439615691227058e-01,2.830624883890801580e-01,2.810527768820866301e-01,2.789399953524905884e-01,2.767079538393388827e-01,2.742858254678128271e-01,2.717305729828088379e-01,2.691323363004970437e-01,2.662633519863136788e-01,2.632520862481643742e-01,2.600892815028250094e-01,2.568550515412127422e-01,2.535030812077872509e-01,2.500631985885189423e-01,2.461665786545658707e-01,2.418405668971294886e-01,2.373680498943530059e-01,2.326806848005799067e-01,2.276141401160043654e-01,2.224639564278782511e-01,2.171824438779133837e-01,2.116574185031127042e-01,2.059374932880927989e-01,2.000949625003495547e-01,1.941048360796862882e-01,1.875564306078782162e-01,1.803456068195088968e-01,1.722181998475870446e-01,1.628992926728861645e-01,1.524760380917719593e-01,1.410659395032375640e-01,1.273023672315802268e-01,1.095520646778767593e-01,7.604355068325086009e-02,nan
nan,7.343955422358423857e-02,1.086533573966164401e-01,1.289808076678175819e-01,1.437572631668970480e-01,1.554348847482004414e-01,1.650717735831411237e-01,1.740344917994131602e-01,1.819464249695476876e-01,1.894519195914146636e-01,1.965882578612512810e-01,2.034875393872990212e-01,2.101266694136634805e-01,2.159981569665594681e-01,2.215252002248133956e-01,2.264649987846453216e-01,2.309831686654381377e-01,2.351267365679769461e-01,2.390923158166972651e-01,2.429771981941999115e-01,2.468874255868631906e-01,2.506945129868938249e-01,2.543033649052132139e-01,2.578531892992174113e-01,2.611119012760568792e-01,2.640610639875352605e-01,2.669249269606649433e-01,2.694397705593473691e-01,2.718465070372830805e-01,2.741372262857275088e-01,2.762405378672659895e-01,2.783400846709681020e-01,2.802985869596061885e-01,2.822257668342048054e-01,2.841617006418426516e-01,2.858727067140859890e-01,2.875656863053956402e-01,2.891008121864410141e-01,2.904566437271812740e-01,2.921925151677406962e-01,2.936182650277104900e-01,2.949785870435447377e-01,2.963170014972508759e-01,2.975763822219515964e-01,2.989001548799437580e-01,2.999217009569317138e-01,3.009162291829138303e-01,3.017735702693998823e-01,3.022533050530196164e-01,3.024068637726653463e-01,3.023293960665360824e-01,3.020723340766264808e-01,3.014919140950144127e-01,3.007076466698801465e-01,2.997469644918321352e-01,2.985500017931138617e-01,2.972738167640552320e-01,2.958219099073110536e-01,2.944546098106758381e-01,2.929959135498548806e-01,2.914700629104067242e-01,2.901408300276152596e-01,2.887775891314732779e-01,2.872973264893286527e-01,2.856917401060528605e-01,2.838603496663949510e-01,2.820437666234100749e-01,2.800439296113861887e-01,2.781124640418261573e-01,2.759042724842509786e-01,2.735063191156801854e-01,2.711641632496895604e-01,2.685239883002304428e-01,2.658434774493455000e-01,2.629420003369489778e-01,2.599189835415995908e-01,2.567423682966911702e-01,2.534431579374520349e-01,2.499445944645025119e-01,2.461921669818754044e-01,2.420329633342043207e-01,2.377488051528072743e-01,2.331551450198224573e-01,2.283779126692612460e-01,2.233219961354386274e-01,2.180926403140488468e-01,2.125843632568262254e-01,2.069734380445466815e-01,2.010934592745478866e-01,1.948805798424905478e-01,1.882783782756476954e-01,1.811210797547057605e-01,1.729605843718613756e-01,1.639575270602336987e-01,1.537087627547358837e-01,1.419352608789778147e-01,1.283056309054063371e-01,1.096019162861758128e-01,6.896555848537960776e-02,nan
nan,7.580903105571096257e-02,1.063871026943842835e-01,1.303737014980351494e-01,1.449533286002010757e-01,1.565428205083055913e-01,1.665119117179449937e-01,1.750164793395979634e-01,1.832401778413605686e-01,1.906813190030999250e-01,1.975872213674333133e-01,2.042907626203090687e-01,2.106772842609757057e-01,2.163891800477384941e-01,2.217691470501462481e-01,2.266657016605123087e-01,2.310625701250605957e-01,2.352812707133085657e-01,2.392431269933444626e-01,2.431811808597180158e-01,2.469639763550663947e-01,2.506070805390269163e-01,2.539796064734997083e-01,2.574072745669241935e-01,2.603100953271020868e-01,2.633451106702168198e-01,2.661185573558128570e-01,2.685604400947231296e-01,2.707247444035278394e-01,2.729914839067696941e-01,2.750149098764955724e-01,2.770392623435656843e-01,2.788198701575184124e-01,2.807706412907147731e-01,2.824665026063462037e-01,2.842267909866788567e-01,2.857037730311879908e-01,2.872003590741005752e-01,2.886073338844976077e-01,2.899851616700092061e-01,2.914060986353623206e-01,2.927180444396452752e-01,2.939556940396434448e-01,2.948408952197683064e-01,2.958859605083922206e-01,2.968085170701426634e-01,2.976697945554060976e-01,2.983043739796734650e-01,2.987015036158337522e-01,2.988962103513190249e-01,2.987838596222791576e-01,2.987028658932896485e-01,2.981194958618824109e-01,2.974523950289309493e-01,2.966121197856841918e-01,2.958311762832441238e-01,2.946549385556858081e-01,2.935039953944632019e-01,2.922459451309381562e-01,2.908819316630869012e-01,2.895268745896472651e-01,2.882556216977452124e-01,2.870392117169882074e-01,2.855721189537233085e-01,2.838642140084014498e-01,2.822731043897775960e-01,2.804422017736750705e-01,2.786903499640044357e-01,2.766624261779163096e-01,2.746904550227328157e-01,2.724188279538276025e-01,2.701911896896624921e-01,2.677900569639123374e-01,2.650614279846648658e-01,2.623409524801260662e-01,2.593790814623037067e-01,2.563751308133745965e-01,2.531540867086523594e-01,2.496928374914595405e-01,2.460214884692644710e-01,2.421298104906995652e-01,2.379633430503415026e-01,2.336032568871840853e-01,2.288750731125936688e-01,2.240168590603440479e-01,2.188763347092117784e-01,2.135451797704320254e-01,2.078874056839803419e-01,2.020437966683482633e-01,1.957586894283291079e-01,1.891596139632126805e-01,1.819948859008630182e-01,1.740321800794266682e-01,1.650628467314194936e-01,1.550205045678210714e-01,1.436719172054479465e-01,1.294660520409239568e-01,1.092421178882759109e-01,7.626792562728856861e-02,nan
nan,7.491939371083702892e-02,1.090944789148654281e-01,1.314102023729244451e-01,1.458873657473778729e-01,1.573810924077195250e-01,1.677049462288741077e-01,1.764713327106582907e-01,1.843646617198842486e-01,1.917968842767936721e-01,1.987096468288367390e-01,2.051826028076477459e-01,2.112042943972502196e-01,2.168341666136960610e-01,2.220329899435514176e-01,2.268027120425922527e-01,2.311968011140289603e-01,2.353302703845256971e-01,2.392607372747140027e-01,2.429819949624763276e-01,2.466709394386117915e-01,2.501466253961438513e-01,2.534699477290956460e-01,2.565070522299240374e-01,2.594090720385028859e-01,2.621743864618767406e-01,2.647445778572831143e-01,2.672054313106341783e-01,2.693736792180028150e-01,2.714112203174253724e-01,2.734148765533533365e-01,2.752801943721504552e-01,2.769575852184793519e-01,2.787429245160764069e-01,2.804173908906343882e-01,2.820377199117606315e-01,2.834390790150818629e-01,2.848322104660676035e-01,2.861071057100655346e-01,2.874387260656009468e-01,2.885757957953705155e-01,2.898022444244721108e-01,2.908774223129576009e-01,2.917669071934832492e-01,2.926556120083889656e-01,2.933890576356006363e-01,2.940026240267819002e-01,2.945703038779783900e-01,2.948238616680402546e-01,2.949640803306836645e-01,2.950084465798910038e-01,2.949079561737156796e-01,2.945206887753325509e-01,2.939137059930934659e-01,2.932750342773863261e-01,2.925864695213946098e-01,2.915321733526048953e-01,2.905596799848562672e-01,2.894799981437429226e-01,2.882737195831593935e-01,2.870956465305745109e-01,2.859805050516153191e-01,2.846842003957451017e-01,2.832835910477757846e-01,2.818057661299647743e-01,2.801922807995628206e-01,2.785930274507729676e-01,2.768156876943679290e-01,2.749886654787007112e-01,2.729876476029782784e-01,2.709635012839898272e-01,2.687904790548641953e-01,2.665061789606057996e-01,2.639653295976508440e-01,2.612663296316389827e-01,2.585224557055809114e-01,2.555568558840787263e-01,2.524830008067443510e-01,2.492041720931977289e-01,2.456564430129197230e-01,2.418761665387325621e-01,2.380172435365016936e-01,2.337887177555847129e-01,2.292500951271631005e-01,2.245326826765387807e-01,2.194811235723037046e-01,2.142754754350552904e-01,2.087033062457000765e-01,2.028063365062888757e-01,1.967821823666558445e-01,1.902012762435014159e-01,1.830741652991869362e-01,1.748109758470435815e-01,1.663259644451950126e-01,1.564759360358420615e-01,1.448924272700531646e-01,1.306932108413880467e-01,1.105754854687858030e-01,7.674075212924613698e-02,nan
nan,7.567490948957453223e-02,1.092826131256524891e-01,1.328996268875830278e-01,1.477089228982222113e-01,1.594440430569881162e-01,1.691797181535430461e-01,1.777877691786019232e-01,1.856434494747601360e-01,1.928808463327476019e-01,1.996199556297802991e-01,2.058084682113396624e-01,2.117547254151648239e-01,2.171490701762572306e-01,2.221390010874164933e-01,2.268066263783342640e-01,2.311291727871669366e-01,2.351726109636700923e-01,2.389811750696025361e-01,2.425804892490369680e-01,2.460595118278657290e-01,2.493340499045932079e-01,2.525022932119447838e-01,2.554896499277583555e-01,2.582202802453384405e-01,2.608337101740684782e-01,2.632188173068619741e-01,2.654496900482202770e-01,2.676126846842796780e-01,2.695642710334916758e-01,2.714139018453957108e-01,2.732310390136376554e-01,2.748969263305045541e-01,2.764888076766836567e-01,2.780563756393229502e-01,2.795530021519759822e-01,2.808882629654747554e-01,2.821779527564367007e-01,2.833696427743033763e-01,2.844963762072618696e-01,2.856291522224568835e-01,2.865598388058299140e-01,2.875178475198558736e-01,2.883548694757914754e-01,2.890992339736373484e-01,2.896894762804362866e-01,2.901732301339149389e-01,2.906442074643416640e-01,2.909086566778877891e-01,2.909635994319291763e-01,2.909924101110756833e-01,2.908516637836252028e-01,2.905823572703232216e-01,2.901237962473940946e-01,2.896555815711078785e-01,2.890435347353020323e-01,2.882318878034194065e-01,2.874125082888119298e-01,2.863710720560339595e-01,2.854124765250572460e-01,2.843434248758489602e-01,2.832575718667562636e-01,2.819234594165652696e-01,2.807382108832198742e-01,2.793349375874824569e-01,2.778607962670985865e-01,2.763175946759415247e-01,2.746814146394720435e-01,2.729613060533287450e-01,2.711354672935130661e-01,2.691591846664270760e-01,2.671305426477369460e-01,2.649332181564273414e-01,2.625554077689084553e-01,2.600143285812516747e-01,2.573441993977259590e-01,2.545967769510743550e-01,2.516139077105841171e-01,2.484150653148836652e-01,2.451393972227388085e-01,2.415910198610640436e-01,2.377545009816368349e-01,2.336960232092348544e-01,2.294529434854363226e-01,2.248835527102841791e-01,2.200388933065922092e-01,2.148627162164850335e-01,2.094718033476708485e-01,2.038902399723028780e-01,1.977721715170352446e-01,1.911358060207010434e-01,1.840517660726799509e-01,1.763410118868324883e-01,1.676083582077027012e-01,1.579098039718708768e-01,1.463295202707810272e-01,1.319864935930107064e-01,1.122327119469890000e-01,7.393081460109253433e-02,nan
nan,7.899998173572947424e-02,1.149692384392921735e-01,1.347943112671289578e-01,1.490936613750528661e-01,1.610884467010623711e-01,1.708108600847426106e-01,1.790488131171540653e-01,1.868299516157924667e-01,1.937624714234034984e-01,2.003779369997356341e-01,2.065303793234648799e-01,2.121063754573797866e-01,2.173338445963442223e-01,2.221771673184460560e-01,2.267068158523798671e-01,2.308697902676792868e-01,2.348015913542996214e-01,2.385061878292654980e-01,2.419769347067028953e-01,2.452253994404600679e-01,2.484081512913293155e-01,2.513725946261355371e-01,2.541678714215742096e-01,2.567777285930845643e-01,2.591946971588267035e-01,2.615167256517558214e-01,2.636554309116815320e-01,2.656594265323014570e-01,2.675534793625131136e-01,2.693482490050473910e-01,2.710191213672987764e-01,2.725888242829486163e-01,2.740876087071747458e-01,2.755161833583329445e-01,2.768286436010302110e-01,2.781464728540344877e-01,2.793051886439375520e-01,2.804146082458569000e-01,2.814557572388145523e-01,2.824139620968456055e-01,2.832968600516669322e-01,2.841106429434420155e-01,2.849682777344780260e-01,2.854250696224711614e-01,2.859617269772010695e-01,2.864290375741611605e-01,2.867317700804637437e-01,2.870028592161756875e-01,2.870599072710149913e-01,2.870430319226287552e-01,2.869912527941025915e-01,2.867364624513727422e-01,2.863628571145419577e-01,2.859410214476986178e-01,2.854601802005788391e-01,2.848140021873494243e-01,2.841009604536393063e-01,2.832686956663637012e-01,2.823879507668850541e-01,2.813788089578004858e-01,2.803184627778412819e-01,2.791904798250379183e-01,2.780268733906445244e-01,2.767076183313178506e-01,2.753598648161209583e-01,2.739089642674481517e-01,2.723989130434727457e-01,2.708061069743005755e-01,2.690643370223413933e-01,2.672362187818130286e-01,2.652752864476699002e-01,2.632012870940837468e-01,2.609464738984841325e-01,2.585284118672440123e-01,2.560650627638429988e-01,2.534196230562579810e-01,2.505108366606508263e-01,2.475701631015045923e-01,2.443617599389371620e-01,2.409345313989128545e-01,2.373273419756516955e-01,2.334671400726857360e-01,2.293119113557537392e-01,2.249644312820743841e-01,2.203271543296080603e-01,2.153660772466972351e-01,2.101967233252435285e-01,2.046631965587893398e-01,1.986438605546326230e-01,1.922122272612791782e-01,1.852489267164446896e-01,1.773096606285713139e-01,1.689331183155995397e-01,1.593152260873554049e-01,1.479722816354819837e-01,1.344280497429966581e-01,1.143960626743339426e-01,8.127521311801411130e-02,nan
nan,8.223302203018506562e-02,1.150032982244922064e-01,1.368126067287507852e-01,1.509396333022648140e-01,1.626612476429972753e-01,1.722538713948125466e-01,1.803453515819858910e-01,1.878673369749292166e-01,1.946874423841246093e-01,2.010535254276949735e-01,2.071048951224666312e-01,2.124746220007201758e-01,2.173609491305755204e-01,2.220347258101975640e-01,2.264476888785681985e-01,2.304658669840981000e-01,2.342486537327098106e-01,2.378443982720641614e-01,2.411421759429748235e-01,2.443233043881500033e-01,2.473255249214244000e-01,2.501364155168817605e-01,2.528150948541593723e-01,2.552700568138678294e-01,2.575944126272967649e-01,2.597699238824299206e-01,2.617841420519917972e-01,2.636827509725097052e-01,2.654835501376371365e-01,2.672288055917771965e-01,2.688044328885975665e-01,2.703216007210522132e-01,2.716838654117560981e-01,2.730589619950529179e-01,2.743047188087812671e-01,2.754775186455813429e-01,2.765536949511656628e-01,2.776322175591506292e-01,2.784627052985617079e-01,2.795154410842186077e-01,2.801305461934899266e-01,2.809156756624252016e-01,2.816023562609183961e-01,2.821847527382241871e-01,2.826136312033307174e-01,2.829655448405532514e-01,2.831771450901655607e-01,2.833175800936851285e-01,2.832653802298177315e-01,2.834853703433185546e-01,2.834224829615633046e-01,2.830948965587398725e-01,2.828149930189819972e-01,2.824912742541864641e-01,2.819984324318308699e-01,2.814549897681843937e-01,2.809128865633369054e-01,2.801908786801992624e-01,2.793798825639839389e-01,2.785659832943485070e-01,2.775150675408171730e-01,2.764418023341100317e-01,2.753636562064877280e-01,2.741907756153037501e-01,2.728811073738645065e-01,2.715194628455730452e-01,2.700730611980212692e-01,2.686279952571110075e-01,2.669666018013821529e-01,2.651911987594487985e-01,2.633424576198573619e-01,2.613234696357958353e-01,2.593076852781187047e-01,2.570224756762403695e-01,2.546551732141961177e-01,2.520882834605778777e-01,2.494080028587767062e-01,2.465420935494262999e-01,2.434970102660852509e-01,2.402552352626388110e-01,2.367801646621265355e-01,2.330378779257517019e-01,2.291124605057488495e-01,2.248959727755571181e-01,2.204473107376953012e-01,2.156606366313331413e-01,2.107096332511199932e-01,2.053214294836148146e-01,1.993673507581416593e-01,1.931416489051994423e-01,1.862542879877140956e-01,1.787320962068509045e-01,1.703313042041581515e-01,1.607476582694729594e-01,1.498029265987189940e-01,1.350100797983853629e-01,1.168517101141995779e-01,8.000923481886630662e-02,nan
nan,8.132924605237597249e-02,1.202290790847979907e-01,1.387953544866169509e-01,1.524474433466315171e-01,1.640836758654952432e-01,1.734941565538599684e-01,1.814982540436945180e-01,1.887646113802775583e-01,1.954608188028679749e-01,2.017166274001737647e-01,2.072967515044812914e-01,2.126242769493881246e-01,2.173977873218712054e-01,2.218956756134490282e-01,2.261165716753462673e-01,2.300254569708689578e-01,2.336779485348745300e-01,2.371641865289114692e-01,2.403326522313706526e-01,2.434072398701497830e-01,2.462542302603801248e-01,2.489353264398783960e-01,2.514202560775245510e-01,2.538471866128226839e-01,2.560486405874037863e-01,2.580846631905491795e-01,2.600412163702028323e-01,2.618484775090950123e-01,2.635891437395040393e-01,2.652266030165734145e-01,2.667432636106529253e-01,2.681513509891136904e-01,2.695504217473758679e-01,2.708101509094221759e-01,2.719628105117816164e-01,2.730617283824618990e-01,2.741935561546304800e-01,2.750674556820399963e-01,2.758671184633046947e-01,2.766727443676975096e-01,2.773787813928523804e-01,2.780669630028971273e-01,2.786830347308525413e-01,2.792155863722627362e-01,2.796625680238770673e-01,2.797837613740362661e-01,2.800040369135199381e-01,2.800696201333902069e-01,2.803682439811926441e-01,2.804284552814523268e-01,2.802884457244712024e-01,2.800755736422761988e-01,2.798518641757956060e-01,2.794699490873184811e-01,2.790440876384679969e-01,2.785653971965073583e-01,2.780464506054838303e-01,2.775258114325201420e-01,2.766695486019014050e-01,2.759138608044070518e-01,2.749502473895642507e-01,2.739666186398106440e-01,2.729574530688778089e-01,2.717962276023991874e-01,2.705321207113373649e-01,2.692374442176505012e-01,2.679354347148376614e-01,2.664807568205149746e-01,2.650294268013521637e-01,2.632749537839315646e-01,2.615221969573838789e-01,2.596204360535133149e-01,2.576362305358702587e-01,2.554943760253172713e-01,2.532551390895928511e-01,2.508328043885127978e-01,2.482295191196076944e-01,2.454922556787947907e-01,2.426195840254389835e-01,2.394690467837583547e-01,2.361689798644629468e-01,2.325916994920645131e-01,2.288181332337240748e-01,2.247813196237439526e-01,2.204801946638443311e-01,2.158836403860656672e-01,2.110291862251086337e-01,2.058117114747697318e-01,2.000491663734247916e-01,1.939729215663555661e-01,1.872503023317181881e-01,1.799555283825396146e-01,1.716622169418410560e-01,1.621976296242017834e-01,1.513324068482497509e-01,1.378454511298333185e-01,1.167292444363937087e-01,7.968316456731627806e-02,nan
nan,8.937861586142369086e-02,1.220686770146657968e-01,1.411187844833378668e-01,1.545443259522346624e-01,1.652671386513734353e-01,1.742518893472860819e-01,1.825176915069301464e-01,1.896801780167073903e-01,1.962100679440916817e-01,2.021412157894399431e-01,2.077144355268008002e-01,2.127030645968701894e-01,2.173789591885481598e-01,2.217849977959927277e-01,2.258330482227284830e-01,2.295870331391456354e-01,2.331212129790302123e-01,2.364521929908341979e-01,2.395300303602303504e-01,2.424562299269020227e-01,2.451656318523783573e-01,2.477307160605247693e-01,2.501699985214019817e-01,2.524010986775723220e-01,2.545175696827162715e-01,2.565312817462380712e-01,2.584148183113298414e-01,2.601734748798296692e-01,2.618529641559680377e-01,2.634179357520570197e-01,2.649274057267254068e-01,2.662875332377551141e-01,2.675750797437413953e-01,2.688249547509808934e-01,2.699356554447705503e-01,2.710177926836242479e-01,2.719022412632557950e-01,2.727615574898314965e-01,2.735962716204121126e-01,2.742872154313711341e-01,2.750444472632420090e-01,2.756146666927610234e-01,2.762141373854184456e-01,2.766968820339001378e-01,2.769843276945169741e-01,2.771694565863879189e-01,2.773869554464695741e-01,2.775962665799056595e-01,2.777858612790377602e-01,2.778562837481537429e-01,2.777291821186134713e-01,2.774975948185869901e-01,2.772040958834119384e-01,2.769448668784427747e-01,2.766309254002228268e-01,2.761014037540961974e-01,2.756621243967964929e-01,2.750265377767509567e-01,2.743965125709543207e-01,2.735849114830632423e-01,2.727671701722421682e-01,2.717434223142181082e-01,2.707847997696025688e-01,2.696903226211661564e-01,2.685390879802659336e-01,2.672749545706954444e-01,2.659577709903394593e-01,2.646140686610678472e-01,2.631316712491297283e-01,2.615231078380301222e-01,2.598488610651968900e-01,2.580362139136865296e-01,2.561188903025806152e-01,2.540849898877517998e-01,2.518972692185842965e-01,2.495737786832988025e-01,2.471529400865808968e-01,2.444910874130604150e-01,2.416925658637359142e-01,2.387513159783019034e-01,2.354846865980809723e-01,2.320935973862864876e-01,2.284423484209189836e-01,2.245998734915597983e-01,2.204827691021377101e-01,2.161059773443376186e-01,2.113358349413452242e-01,2.061102192914720521e-01,2.006741323211230221e-01,1.947163263529224642e-01,1.881532621240774583e-01,1.808000688488762275e-01,1.727854599463527485e-01,1.634709795035907409e-01,1.528293319456550392e-01,1.390811143868897759e-01,1.183785711182380046e-01,8.320151372024897629e-02,nan
nan,8.909431732060416054e-02,1.230380135154634930e-01,1.426239711433798518e-01,1.555232428466711281e-01,1.662978512005248710e-01,1.753135329925840924e-01,1.834085269807944896e-01,1.904372924661430488e-01,1.967838464263276244e-01,2.026759421662151506e-01,2.079196474691050456e-01,2.128921227091902235e-01,2.173578158424959439e-01,2.216691534050091728e-01,2.255404508651958351e-01,2.291604374668750888e-01,2.325458601297220318e-01,2.357326577414862179e-01,2.387495846972336189e-01,2.415565629411559334e-01,2.442034274531699189e-01,2.466824597911899675e-01,2.489788453827728176e-01,2.511893092256851645e-01,2.531914100105515653e-01,2.551353347515231129e-01,2.569714850987616650e-01,2.587001758903016424e-01,2.602897839368548683e-01,2.618046608117288176e-01,2.632808713726493277e-01,2.646231356039724369e-01,2.658873889927521050e-01,2.670312251553558225e-01,2.681044071719492217e-01,2.690934746275775447e-01,2.699815343532190326e-01,2.708382023484969814e-01,2.716244855894067722e-01,2.723421045767864812e-01,2.729814665167435983e-01,2.735708957478004688e-01,2.740899680000743466e-01,2.745215936748842678e-01,2.748510552386633776e-01,2.750357290484161110e-01,2.752275693476260443e-01,2.753959982170648968e-01,2.755236402042325894e-01,2.755843217072069251e-01,2.755606809383086553e-01,2.753465910766614844e-01,2.751168520637593540e-01,2.748218042421832763e-01,2.743950319340808797e-01,2.739695354266300509e-01,2.734743779416934917e-01,2.729372384726427292e-01,2.723064413878603096e-01,2.715903530296652768e-01,2.707411367246584932e-01,2.698750596315835359e-01,2.689485900067937751e-01,2.678821408130817594e-01,2.667443571553100856e-01,2.655496537305815363e-01,2.642978311255942403e-01,2.629372009027809431e-01,2.615389484748105176e-01,2.600205219183486238e-01,2.583160168746919116e-01,2.566537071818592586e-01,2.547408913417135157e-01,2.527530608119213373e-01,2.506952351949130464e-01,2.484449943408933992e-01,2.460739920869525199e-01,2.435996483274856794e-01,2.408767423507041094e-01,2.380034540471274440e-01,2.349452811930267115e-01,2.316489408895730795e-01,2.281495798513760165e-01,2.243915880670976082e-01,2.203989393439147737e-01,2.161084376670125984e-01,2.115334060638439928e-01,2.065228337737720077e-01,2.012545584264487097e-01,1.953806426253642259e-01,1.889956522267302597e-01,1.818104785848102256e-01,1.738710887555974804e-01,1.644493461674515766e-01,1.537490026982597513e-01,1.395654246754970962e-01,1.182813398077032091e-01,8.170344435806407846e-02,nan
nan,8.916462917805105526e-02,1.262231150387938816e-01,1.436192527543697639e-01,1.566846811192844358e-01,1.674500668699634154e-01,1.762842548144182286e-01,1.842597828796395942e-01,1.912028580245074827e-01,1.974064045644906007e-01,2.029845497531013176e-01,2.082409086283043276e-01,2.130184458532040914e-01,2.173807264690830743e-01,2.215236438445267464e-01,2.252745909863578810e-01,2.287447942462799144e-01,2.320756802740599201e-01,2.350949501988761070e-01,2.380672017606316193e-01,2.407800181529274608e-01,2.433186651323378524e-01,2.456690673859581731e-01,2.479587005222550489e-01,2.500760240380079935e-01,2.520595333674569005e-01,2.539180915741857669e-01,2.556896634790932765e-01,2.573284444448915576e-01,2.589071920407576832e-01,2.604142081898268568e-01,2.617929010880052365e-01,2.630885767830004607e-01,2.642849640261103472e-01,2.654088051125857439e-01,2.664365057238102796e-01,2.673753550912782995e-01,2.682591280123214350e-01,2.691022977181175557e-01,2.698584050839355486e-01,2.705574466581220916e-01,2.711614019654587371e-01,2.716598128081811891e-01,2.721341561019228750e-01,2.726581923536340879e-01,2.729230903383897955e-01,2.731047138306328947e-01,2.732434702997062481e-01,2.733992082911569366e-01,2.735395323312577176e-01,2.736072860764283687e-01,2.735351613804888338e-01,2.733362338630538901e-01,2.731549381263829179e-01,2.728697265989255549e-01,2.725182716762214463e-01,2.720460355010307918e-01,2.715241148465177279e-01,2.710403695427087145e-01,2.704192238943309290e-01,2.697670538724989964e-01,2.690058282039349269e-01,2.681499433174892588e-01,2.672518407153897657e-01,2.662862858105720654e-01,2.652243350432210711e-01,2.640602510862691821e-01,2.628015752689240037e-01,2.614788476585221400e-01,2.601061607896769656e-01,2.585755232293271977e-01,2.570276054597863680e-01,2.553580601350522450e-01,2.535417693615521495e-01,2.516113711480273407e-01,2.495470254342379290e-01,2.474174078472048677e-01,2.451210153231049571e-01,2.427014614464806930e-01,2.401598960006853245e-01,2.373840415293056449e-01,2.343806289084010563e-01,2.312641759508772821e-01,2.277842089527135072e-01,2.242432047371955284e-01,2.203842674473895646e-01,2.162314564123419547e-01,2.117220295064019542e-01,2.069329217751892658e-01,2.017598519813850466e-01,1.961007993038170749e-01,1.897563957804937473e-01,1.829280095210636670e-01,1.751864603679315624e-01,1.657968281123561316e-01,1.549687775722935201e-01,1.410425246226741369e-01,1.205298452033542050e-01,8.448052233464087291e-02,nan
nan,9.355602133585660951e-02,1.251956288801398531e-01,1.446293962042344283e-01,1.578970550888110225e-01,1.685674130064938880e-01,1.772256965438965826e-01,1.850655614709005858e-01,1.917951879576560159e-01,1.979418119124839448e-01,2.034120280142002191e-01,2.085076313738094822e-01,2.131563760625067860e-01,2.173987382024417103e-01,2.213930014751313013e-01,2.249939952556369582e-01,2.284203301948271592e-01,2.315675090477872511e-01,2.346053414706800178e-01,2.374071141342902758e-01,2.400379540462972972e-01,2.424896087109016940e-01,2.448078510936568808e-01,2.469729740753916214e-01,2.490138991718160444e-01,2.509792901608037807e-01,2.527856760308100914e-01,2.545048097098739914e-01,2.561218962074934269e-01,2.576670363011149822e-01,2.590852031259802679e-01,2.604547989410078146e-01,2.617103507004535645e-01,2.628744403329013046e-01,2.639257796762522479e-01,2.649224162201018751e-01,2.658205759868098039e-01,2.666822062265663540e-01,2.675009824911565026e-01,2.682391134606376126e-01,2.688719335265254973e-01,2.694177067424745053e-01,2.699313025528974341e-01,2.704139278642731514e-01,2.708548489498630030e-01,2.711385373383137232e-01,2.713645926148307574e-01,2.714862230186760872e-01,2.716135741706884876e-01,2.717466480918913074e-01,2.717526326532533343e-01,2.716867890441818090e-01,2.715860002894436853e-01,2.713511304524194312e-01,2.710944830445489728e-01,2.707436168114050745e-01,2.702569061681670548e-01,2.697727452482235333e-01,2.693207769855952560e-01,2.687655778368372439e-01,2.681022271123884027e-01,2.673631371108796673e-01,2.665381380973432801e-01,2.656979477959435787e-01,2.647993609024333339e-01,2.637802215752489965e-01,2.626532678869047954e-01,2.614384649410668726e-01,2.601374455904764682e-01,2.587984729742851542e-01,2.573579367624919123e-01,2.558243576470132230e-01,2.541907745441130961e-01,2.524521754345136482e-01,2.505837510642236476e-01,2.486003805393210975e-01,2.464773116535613484e-01,2.442398295490267324e-01,2.418987014995254148e-01,2.394295456905538022e-01,2.367492889226356645e-01,2.338666442596177009e-01,2.308497069136994373e-01,2.275730675494425648e-01,2.240573689119957912e-01,2.203037805645681746e-01,2.162551621672308688e-01,2.119446961139003494e-01,2.072964875817637775e-01,2.022384660237182552e-01,1.966818435238787410e-01,1.905861677552356803e-01,1.838341833226820876e-01,1.762522558429008845e-01,1.670301238537971744e-01,1.562002204271605021e-01,1.420977518537071826e-01,1.213202840862000198e-01,8.647222514745850352e-02,nan
nan,8.681732129906039042e-02,1.251307132313532744e-01,1.444801461108118357e-01,1.589576761733652033e-01,1.695609468567763345e-01,1.782874402349524934e-01,1.859245101822626367e-01,1.924774626341153871e-01,1.984349221307857014e-01,2.038316608298245125e-01,2.086740200186834593e-01,2.132190770055821805e-01,2.173884508280616301e-01,2.212291775965173624e-01,2.246846655388115843e-01,2.280754142077821567e-01,2.311612766303118849e-01,2.340321172170325426e-01,2.367851402434178465e-01,2.393300534309596994e-01,2.417425767148027593e-01,2.439782448643030011e-01,2.460750940440120660e-01,2.480744477707542139e-01,2.499358645189674599e-01,2.517209681990454362e-01,2.533963553777686117e-01,2.549850456203023308e-01,2.564642633643018366e-01,2.578740278949463449e-01,2.592031365380229047e-01,2.603833735776331926e-01,2.615232928855702466e-01,2.625569768079263344e-01,2.634685742154390664e-01,2.643708465079884773e-01,2.651774255210486708e-01,2.659916842866001385e-01,2.666883589147899247e-01,2.673040162982273649e-01,2.678342532242138918e-01,2.683346516059257891e-01,2.687911913369440686e-01,2.692002797571303452e-01,2.694731602161039574e-01,2.697140172581792283e-01,2.698626225145808188e-01,2.699627578944594486e-01,2.700441674477036536e-01,2.700688120274328807e-01,2.700525510318287359e-01,2.699373603234264118e-01,2.697305629682992811e-01,2.694492066970063382e-01,2.690709898940762956e-01,2.686629686356891700e-01,2.681907882213062644e-01,2.677462090255280369e-01,2.672058499780511354e-01,2.665287488949357741e-01,2.658014617485823239e-01,2.650277415408128778e-01,2.642140514936342499e-01,2.633461614801035910e-01,2.623641854349634261e-01,2.612989348753814722e-01,2.601298200710943642e-01,2.589124396949381013e-01,2.575808559353233163e-01,2.561707688006679140e-01,2.546606345865734533e-01,2.530771231146211608e-01,2.514050463631961607e-01,2.496001354336471467e-01,2.476695241608732334e-01,2.456126638731716827e-01,2.434281799413138825e-01,2.411313463293525972e-01,2.387500852839198606e-01,2.361460412266805364e-01,2.334115473433991672e-01,2.304409385041606972e-01,2.272685174386517015e-01,2.238428383294931712e-01,2.202945641837940893e-01,2.164210365840922856e-01,2.121424088939554142e-01,2.076442884362450780e-01,2.026920883367282211e-01,1.972376010113906786e-01,1.913265957822273822e-01,1.845454588130624185e-01,1.772198039685325965e-01,1.680139163532076707e-01,1.572317905477962074e-01,1.420128896975844657e-01,1.203391961539670846e-01,8.517012132569878879e-02,nan
nan,8.782175530886297821e-02,1.245873818476827405e-01,1.449798196294884156e-01,1.598977344673107037e-01,1.705020782572594651e-01,1.791260432868165831e-01,1.865969415661894171e-01,1.929940676891844786e-01,1.988368701965922414e-01,2.040955193751406160e-01,2.088627170732114957e-01,2.132639766911847423e-01,2.172143969457044077e-01,2.209720741576503000e-01,2.244781350315772084e-01,2.277436898128157028e-01,2.306850570384432475e-01,2.335385656424971423e-01,2.361662342849854268e-01,2.386287379696917510e-01,2.409348505295489662e-01,2.431190582980300163e-01,2.451960449598660774e-01,2.470908212186047059e-01,2.489601120479150997e-01,2.506626846452975621e-01,2.523171547684646687e-01,2.538644519110667130e-01,2.552998017981000234e-01,2.566836509587983595e-01,2.579653380113058336e-01,2.591392651350350462e-01,2.601944957415774362e-01,2.611961177256924560e-01,2.621089293372992901e-01,2.629605623816986815e-01,2.637701403661887878e-01,2.645303246345040438e-01,2.652185175104385673e-01,2.657907972804756103e-01,2.663425368119758940e-01,2.668155717897483514e-01,2.672440798603855638e-01,2.675977270821078280e-01,2.678887257001019151e-01,2.681398931093634808e-01,2.682878735866587872e-01,2.683901181100287747e-01,2.684614558988061561e-01,2.684774926281413565e-01,2.684462959932935044e-01,2.683322463963375148e-01,2.681491581747655895e-01,2.678694489037534154e-01,2.675446167284525334e-01,2.671239743085079832e-01,2.666783362120049294e-01,2.662338778706993536e-01,2.656868842502886352e-01,2.650639385252286928e-01,2.643674013383280896e-01,2.636009900756040580e-01,2.627999186005646193e-01,2.619498829788100558e-01,2.610193910825175934e-01,2.599722858792929969e-01,2.588975574841410054e-01,2.577044244708831533e-01,2.564207742568196391e-01,2.550318495611747505e-01,2.535794913920944027e-01,2.520466324381284151e-01,2.503702292836111898e-01,2.486070131726672849e-01,2.467725960963396137e-01,2.447633954804936951e-01,2.426643914358869725e-01,2.404372883720456711e-01,2.380641634869797851e-01,2.355690179767822856e-01,2.329141887297857538e-01,2.300458466049249417e-01,2.270291310863742640e-01,2.237396394768087771e-01,2.201874305087970218e-01,2.163817950400766521e-01,2.123380074749158797e-01,2.078988538623511295e-01,2.031196709855411509e-01,1.978533023894902265e-01,1.918757673935211905e-01,1.853932810371899664e-01,1.778932573659395833e-01,1.690663570157348583e-01,1.572820330862288452e-01,1.433135670298779363e-01,1.166862582868464226e-01,8.512031243665557634e-02,nan
nan,8.864774803385751245e-02,1.212690741160544761e-01,1.466368017814995983e-01,1.605401772898820967e-01,1.712377892939002388e-01,1.797563618757592185e-01,1.871896811971486552e-01,1.934533905182316271e-01,1.991703887665641770e-01,2.043511312324314821e-01,2.090065550992005194e-01,2.131866091776785099e-01,2.171909815460360549e-01,2.207718197197577059e-01,2.241747953792487258e-01,2.273101813293454121e-01,2.302292187790566103e-01,2.329564599719907703e-01,2.355352638813816846e-01,2.379263822260936634e-01,2.401956724047873415e-01,2.423253889680807016e-01,2.443146303334536862e-01,2.462127935876156914e-01,2.479877211962070449e-01,2.496872634694873583e-01,2.512894018321271128e-01,2.527815316789246980e-01,2.541968286346906192e-01,2.555377481398894979e-01,2.567532550104755229e-01,2.578649243730467555e-01,2.589069369609425242e-01,2.598474303168349930e-01,2.607534495660421281e-01,2.616188397912654895e-01,2.624117101527849716e-01,2.631166436283123300e-01,2.637645266245941533e-01,2.643301871008489345e-01,2.648426053745834285e-01,2.653103307265800570e-01,2.657283311160078543e-01,2.660927648148755376e-01,2.663967336015584664e-01,2.666259568592739271e-01,2.667676618620123952e-01,2.668776993331671288e-01,2.669106121947708576e-01,2.669014412308347572e-01,2.668559985310502425e-01,2.667505293425428969e-01,2.665932604758600721e-01,2.663564394706542382e-01,2.660383112803315075e-01,2.656630777079715955e-01,2.652278542600677858e-01,2.647684093129512584e-01,2.642195158303464186e-01,2.636194848078827202e-01,2.629656869727957647e-01,2.622401245685577753e-01,2.614546482357953394e-01,2.605991177757241428e-01,2.596934949118551161e-01,2.587020119410614605e-01,2.576501198424765993e-01,2.564909344523174095e-01,2.552627709173083126e-01,2.539255273050604056e-01,2.525133814854609304e-01,2.510019003736477794e-01,2.493615048156540837e-01,2.476891957062382355e-01,2.458551470467579270e-01,2.438983301108473001e-01,2.418763312143958621e-01,2.397219036514827151e-01,2.374005393561335886e-01,2.349737167470873078e-01,2.323779062510686888e-01,2.296120683707705279e-01,2.266188683751499955e-01,2.234561618217149326e-01,2.199783987050602796e-01,2.163573087318030330e-01,2.124338880198435309e-01,2.081394814961297635e-01,2.034489035129214418e-01,1.983133517428189163e-01,1.925464387637509378e-01,1.860898691162806429e-01,1.789471836489727741e-01,1.700896658238462422e-01,1.592710027822986374e-01,1.442975032704371663e-01,1.191298192251121491e-01,8.702765618981109230e-02,nan
nan,8.992485124983008726e-02,1.248452213331760485e-01,1.457937614139040439e-01,1.615571277932589533e-01,1.718250545774946403e-01,1.804849431392514247e-01,1.875609642796921550e-01,1.938833642895408937e-01,1.994386716783187463e-01,2.045336806098996818e-01,2.090342138269368766e-01,2.131590187062173403e-01,2.170196904804821414e-01,2.205367220084598623e-01,2.237821839621768616e-01,2.268491345280551352e-01,2.296800846413911412e-01,2.323565751908995280e-01,2.348659855239584038e-01,2.371839525336903454e-01,2.394016848311880108e-01,2.414720256197403492e-01,2.434455475680939451e-01,2.452685615161636079e-01,2.470275734568684045e-01,2.486795279803979408e-01,2.502329108291811433e-01,2.517071524479819744e-01,2.530918300054355030e-01,2.543714663994781633e-01,2.555449546655019777e-01,2.566155895240238016e-01,2.575990041929514529e-01,2.585494509106036620e-01,2.594471195579569067e-01,2.602703742330446102e-01,2.610596403455043291e-01,2.617553581031382137e-01,2.623545027346166902e-01,2.629156806619475928e-01,2.633845165798174293e-01,2.638307228110270963e-01,2.642606516267168582e-01,2.646120398402254104e-01,2.649134523865014912e-01,2.651505416585534514e-01,2.652934456994894274e-01,2.653801003062924990e-01,2.654015387103589307e-01,2.653920859540375154e-01,2.653433614556920950e-01,2.652605744640190721e-01,2.651099294598079914e-01,2.648824868086780415e-01,2.645840940886416970e-01,2.642451338136654337e-01,2.638315167155014240e-01,2.633447807373757166e-01,2.628045838284172597e-01,2.622155806977672921e-01,2.615796770669628346e-01,2.608857853173476293e-01,2.601082862218041525e-01,2.592762075007745137e-01,2.583921685558729364e-01,2.574413704184158602e-01,2.564199622367962506e-01,2.553170201942158712e-01,2.541215393261821998e-01,2.528218769120507137e-01,2.514390116324763946e-01,2.499522995150681437e-01,2.483898284549434787e-01,2.467226138841929761e-01,2.449342089139594503e-01,2.430653758175493340e-01,2.410651961140861943e-01,2.389579114487299372e-01,2.367309729098824866e-01,2.343359439622500484e-01,2.318390922452693848e-01,2.291328792037377604e-01,2.262408007158523970e-01,2.231483692372219219e-01,2.198309438568932239e-01,2.163143988192846312e-01,2.124661678082179761e-01,2.082318009389541869e-01,2.036452604354300477e-01,1.985681711977481667e-01,1.930015555373055525e-01,1.867278749496164569e-01,1.793912123116534196e-01,1.710059698444433562e-01,1.604556838157614740e-01,1.462470164154693331e-01,1.219185669838340758e-01,8.918031729615610859e-02,nan
nan,8.873287409161290107e-02,1.255510737298911605e-01,1.475638791561265095e-01,1.620733364268859833e-01,1.723826720202243923e-01,1.809459369779974625e-01,1.880503128306494909e-01,1.942552565212592175e-01,1.996757015417999215e-01,2.045772967873232262e-01,2.090143121206514687e-01,2.130898907444893076e-01,2.168045929975556674e-01,2.202297694278318729e-01,2.233794582612381729e-01,2.263207893048753971e-01,2.291331276518669968e-01,2.317274011310283821e-01,2.341721188030825018e-01,2.364513046693645926e-01,2.385674848681434979e-01,2.406137148973863660e-01,2.425138803263881537e-01,2.443375190766452487e-01,2.460337642157153504e-01,2.476562599460653269e-01,2.491549065471776458e-01,2.506114072072077592e-01,2.519433654671623390e-01,2.532024587424205331e-01,2.543297957652949082e-01,2.553721106388203710e-01,2.563502331105571574e-01,2.572518471000161955e-01,2.581390212187895106e-01,2.589626722103252066e-01,2.597316711611978857e-01,2.603829863142777534e-01,2.610088776558046608e-01,2.615268521164848536e-01,2.619916692424438254e-01,2.623932948340192972e-01,2.628063077913500023e-01,2.631347164602244049e-01,2.634387497152146929e-01,2.636586292669070852e-01,2.638152690479840801e-01,2.638939289495764728e-01,2.639305751450420345e-01,2.639242228974684745e-01,2.638716587095257249e-01,2.638035947776015133e-01,2.636571553305684379e-01,2.634313175439286780e-01,2.631530203636158194e-01,2.628303088638919149e-01,2.624377138522216435e-01,2.619841224677581515e-01,2.614536231835264957e-01,2.608576230131073315e-01,2.602244087381629378e-01,2.595348111695470195e-01,2.587785422995546591e-01,2.579715247695171243e-01,2.571153607494091053e-01,2.562008790219316712e-01,2.552015241961074765e-01,2.541350935303000602e-01,2.529747677331919409e-01,2.517234552040791828e-01,2.503507993011592769e-01,2.489005422793387212e-01,2.473817056502160550e-01,2.457549391776453485e-01,2.439980380243776947e-01,2.421797573481644372e-01,2.402146970595420705e-01,2.381315821491703510e-01,2.359936271491007154e-01,2.336781313609099242e-01,2.312457591693614090e-01,2.285982459004677336e-01,2.258070692118319955e-01,2.227772933074845807e-01,2.195875901634329330e-01,2.160908381748620211e-01,2.123400917098567375e-01,2.083291800221957757e-01,2.037889072707710914e-01,1.988368347173823658e-01,1.933689479626784502e-01,1.871500406779067205e-01,1.798330449940725717e-01,1.714071938598157874e-01,1.612208290800550281e-01,1.474445867246942377e-01,1.260071914416391881e-01,8.939228522522893461e-02,nan
nan,9.388103053894937544e-02,1.276682679872716830e-01,1.482865173608148568e-01,1.626025894909590430e-01,1.734083445269007928e-01,1.815290187593929239e-01,1.884319021548757633e-01,1.943342022253463919e-01,1.998001315450056437e-01,2.045413521401443224e-01,2.088981633285368344e-01,2.128415838799297410e-01,2.165084114443000252e-01,2.198202873560820558e-01,2.228885976069584773e-01,2.257812483305955409e-01,2.285324346875232671e-01,2.310450522559279185e-01,2.334063143682016672e-01,2.356436981185333623e-01,2.377393957511792499e-01,2.397193304799978553e-01,2.415885113676845275e-01,2.433656118902692567e-01,2.450123715087774157e-01,2.465956148110221569e-01,2.481040177565379812e-01,2.495024273822647465e-01,2.508278703528738496e-01,2.520304783256389625e-01,2.531101206311066609e-01,2.541337675247143379e-01,2.550924200202822623e-01,2.559940613764111195e-01,2.568692274453568958e-01,2.576667672759839767e-01,2.583708726663617172e-01,2.590569183479514703e-01,2.596288344140956772e-01,2.601661193263071770e-01,2.606137255999133595e-01,2.610109528892345376e-01,2.613961306573865384e-01,2.617032014874259294e-01,2.619907974529617767e-01,2.621985224669531322e-01,2.623502339105031611e-01,2.624355463347084472e-01,2.624653525265805976e-01,2.624678193476633337e-01,2.624392461254283493e-01,2.623622612820737388e-01,2.622161408027093854e-01,2.619884347721621043e-01,2.617302429459632540e-01,2.614247440103426023e-01,2.610502545759021964e-01,2.606281720744255681e-01,2.601107309762922815e-01,2.595262466487086028e-01,2.588888396326713970e-01,2.582250006731133252e-01,2.574781366687924899e-01,2.566812830346218433e-01,2.558599384750991912e-01,2.549484225136611215e-01,2.539868669103024779e-01,2.529282554217082146e-01,2.517897783785352228e-01,2.505655032747817201e-01,2.492331016958863332e-01,2.478129772085826132e-01,2.463290545121285535e-01,2.447468676663740184e-01,2.430734318581790343e-01,2.412801501192737841e-01,2.393628912910587825e-01,2.373597591573911592e-01,2.352389696151192811e-01,2.329802639038658640e-01,2.305543112442481335e-01,2.280392011954634479e-01,2.252639480969478025e-01,2.223777230238444258e-01,2.192447047110943070e-01,2.158703459678642245e-01,2.122054235856659643e-01,2.082580784248583838e-01,2.038406704082862675e-01,1.990443365240150420e-01,1.935221905895281314e-01,1.875485212755520492e-01,1.804215274737956953e-01,1.720017089682928657e-01,1.619200815268823923e-01,1.475599402845056696e-01,1.281184384640238760e-01,9.140942300555610078e-02,nan
nan,9.206480100097377828e-02,1.282574730204833480e-01,1.492768063424174119e-01,1.634042694643882410e-01,1.738223571177500981e-01,1.819761020421703790e-01,1.886376553281380597e-01,1.945197775365827275e-01,1.997431623444579640e-01,2.044710296503158831e-01,2.086485783412173889e-01,2.125742322829787256e-01,2.160902057713106894e-01,2.193436775894441748e-01,2.223711504722444832e-01,2.251856752871144174e-01,2.278591694941215218e-01,2.303587878296671776e-01,2.326357656075722091e-01,2.348250478970404509e-01,2.368623493662865842e-01,2.387804904524555571e-01,2.406228325108206723e-01,2.423658369796223011e-01,2.439894837900355995e-01,2.455423519404154598e-01,2.470194659715633789e-01,2.483987050689776266e-01,2.496576955544761445e-01,2.508223219260559134e-01,2.518853049781597520e-01,2.528937224726066635e-01,2.538367552480256251e-01,2.547437377828412619e-01,2.555974488754254037e-01,2.564040750176467265e-01,2.570904835148228318e-01,2.577243930238986014e-01,2.582843808222179405e-01,2.588042121391361250e-01,2.592442467739088929e-01,2.596356575210616024e-01,2.599855881140052949e-01,2.603128395975178866e-01,2.605742845072906988e-01,2.607603789043821396e-01,2.609057129550971244e-01,2.609850344362297236e-01,2.610231488326446025e-01,2.610381050196572961e-01,2.609967376956110474e-01,2.609250929444739686e-01,2.607698953911527506e-01,2.605664400485089294e-01,2.603074659623738629e-01,2.600163338506267241e-01,2.596669612571719243e-01,2.592509931448079286e-01,2.587651713067985471e-01,2.581929896109433353e-01,2.575766220450753097e-01,2.569258234346177838e-01,2.562025704696215267e-01,2.554103419577479217e-01,2.545845829842211527e-01,2.536789305720087428e-01,2.527390642101408069e-01,2.517152262157619780e-01,2.505736082628604589e-01,2.493758750353894937e-01,2.481049763762174232e-01,2.467038746267338212e-01,2.452535238133441431e-01,2.437306333184573737e-01,2.420769385273493501e-01,2.403223842600096805e-01,2.384789831214081945e-01,2.365141742454884288e-01,2.344225465413618537e-01,2.322313921322261554e-01,2.299168491966013805e-01,2.273838189708642932e-01,2.247345064583225471e-01,2.218501051284857695e-01,2.188544422500379172e-01,2.155215714058852372e-01,2.119507512210300759e-01,2.080519403539699552e-01,2.038417297886760682e-01,1.990999824523329020e-01,1.936988020038059588e-01,1.878941742952809635e-01,1.810191027385681384e-01,1.730985650634705719e-01,1.632418938511362161e-01,1.486677406907010446e-01,1.292931990494936012e-01,9.400625117666940034e-02,nan
nan,9.380779748750857350e-02,1.309605777635817758e-01,1.512530254978168565e-01,1.642562431507701148e-01,1.740925474200350487e-01,1.821281747534422291e-01,1.888270916384193754e-01,1.945814427806430991e-01,1.996304374991768604e-01,2.042376242342670567e-01,2.083728267083881369e-01,2.121089077693887326e-01,2.156336663479749838e-01,2.188144553431277117e-01,2.217955944321827189e-01,2.245691154706171977e-01,2.271493589491111464e-01,2.295509023176983687e-01,2.318039624136202237e-01,2.339475102893645853e-01,2.359346974652864193e-01,2.378196454696845930e-01,2.396280378003460276e-01,2.413421595021087440e-01,2.429450780800588017e-01,2.444580632423105360e-01,2.459104169991628841e-01,2.472498645737641609e-01,2.484804632261615465e-01,2.496114593618924404e-01,2.506521963399400144e-01,2.516396158199144528e-01,2.525822611174518006e-01,2.534766992528854623e-01,2.543218636753192818e-01,2.551141829414446116e-01,2.557965205001176967e-01,2.563867274759735748e-01,2.569365644616428135e-01,2.574443079326365069e-01,2.578756748347441063e-01,2.582647634771758627e-01,2.586221514667554344e-01,2.589231538572925873e-01,2.591700380941325821e-01,2.593497499437421583e-01,2.594790320469291256e-01,2.595586567631901209e-01,2.596218056953040199e-01,2.596428157185984298e-01,2.595965730420674578e-01,2.595099865158834174e-01,2.593498739703700151e-01,2.591629789487756019e-01,2.589155701653600428e-01,2.586326585019027013e-01,2.582829902397894561e-01,2.578865577093136796e-01,2.574097647218827056e-01,2.568538355686881269e-01,2.562673225092565454e-01,2.556183713235984367e-01,2.549090109796966486e-01,2.541219324720064843e-01,2.532988619870911728e-01,2.524032735967169927e-01,2.514704193633456319e-01,2.504702443667548573e-01,2.493752427030804797e-01,2.482327203977089947e-01,2.469538477850242164e-01,2.455923733791910979e-01,2.441793332475064027e-01,2.426714251457901261e-01,2.410448711691321466e-01,2.393483113228552228e-01,2.375443162624305271e-01,2.356020321756852332e-01,2.335629049020931935e-01,2.314438155092005678e-01,2.291497397951584303e-01,2.267278015353383080e-01,2.240889306919472412e-01,2.213234812758288483e-01,2.183216930521473531e-01,2.151379271166795615e-01,2.116276960414853470e-01,2.077572248941278454e-01,2.036370901324615623e-01,1.990371459674999399e-01,1.939408675184331743e-01,1.881427004462850050e-01,1.813666869648078439e-01,1.736273549999362842e-01,1.639065005530903341e-01,1.510893088500622483e-01,1.294462851602204145e-01,9.441391276514887743e-02,nan
nan,9.590538535798605324e-02,1.312408821583431195e-01,1.512009673881875293e-01,1.647165531350546219e-01,1.743253054251930889e-01,1.822349123589535047e-01,1.888449267126295350e-01,1.945660023971595431e-01,1.994081859833775616e-01,2.039620937239114973e-01,2.079488135871583598e-01,2.116690812510769182e-01,2.150295390811737262e-01,2.182038989737636880e-01,2.211114949960030773e-01,2.238156007733025921e-01,2.263596226980932880e-01,2.287217861559991405e-01,2.309300171063931595e-01,2.330037412962746024e-01,2.349798407496804242e-01,2.368322269433007221e-01,2.385802249345538861e-01,2.402806311603324363e-01,2.418611823390489635e-01,2.433475648128701763e-01,2.447421366273975218e-01,2.460379800199537226e-01,2.472613405076673487e-01,2.483767866152679638e-01,2.493983769115895588e-01,2.503736706570655612e-01,2.513015934826957065e-01,2.521952526858657340e-01,2.530181422580846662e-01,2.537896984754984264e-01,2.544582961210341554e-01,2.550654520119060020e-01,2.556152789056970187e-01,2.560864618678567739e-01,2.565188526821333692e-01,2.569119056656776756e-01,2.572490860688494974e-01,2.575364875590854807e-01,2.577683547550139731e-01,2.579466638443833615e-01,2.580746502219480876e-01,2.581624022220837533e-01,2.582232217582678957e-01,2.582359264735442084e-01,2.581943746944226348e-01,2.580969600018532262e-01,2.579592126514434480e-01,2.577724175564868325e-01,2.575314337068840831e-01,2.572523413508165935e-01,2.569098997319186894e-01,2.565233429578281377e-01,2.560512664524118853e-01,2.555134583184470731e-01,2.549387443919819418e-01,2.542955368342530997e-01,2.536048183103397635e-01,2.528304188988695911e-01,2.519971104401634854e-01,2.511154408291478846e-01,2.501777673578819416e-01,2.492086666377523185e-01,2.481650829134384173e-01,2.470316999360068211e-01,2.458041206505043874e-01,2.444651341962796876e-01,2.430662613721360776e-01,2.415796424952730836e-01,2.400008837014718510e-01,2.383297993415900984e-01,2.365551737479559269e-01,2.346666961497448078e-01,2.326647334201734918e-01,2.305641318782256921e-01,2.282881137997413712e-01,2.259232940185905147e-01,2.234073621312492874e-01,2.206717598583937123e-01,2.177660475519855587e-01,2.145777922921750236e-01,2.111933059602740803e-01,2.074466292840980164e-01,2.033964645985093800e-01,1.989351649333618299e-01,1.939158606818762176e-01,1.882143122048401396e-01,1.816651561632068312e-01,1.736305759414482341e-01,1.642069975015902905e-01,1.514826191715661907e-01,1.304914849284693201e-01,9.498195884110641196e-02,nan
nan,9.695788263490394410e-02,1.330369117084557740e-01,1.521161234106672699e-01,1.650700968802464030e-01,1.742167799492012059e-01,1.821224604258502577e-01,1.886924053341420549e-01,1.943617099978184604e-01,1.991724435383671610e-01,2.035190065530714243e-01,2.075414501963088187e-01,2.111104865194069480e-01,2.144415219034231657e-01,2.174944765642418121e-01,2.203557598651847971e-01,2.229912145755412467e-01,2.254974617379849611e-01,2.277957541287561061e-01,2.299896793213601076e-01,2.320463480933055711e-01,2.339603135985527937e-01,2.357956532070117628e-01,2.375164344827320750e-01,2.391660141070340306e-01,2.407211889411706995e-01,2.421939256707047183e-01,2.435403993487564589e-01,2.448204812610271508e-01,2.459915541435272468e-01,2.471046290754785879e-01,2.481276174933976786e-01,2.490863455384464409e-01,2.500011005342319681e-01,2.508821793808430067e-01,2.517132412863679614e-01,2.524707087458467059e-01,2.531348426187748912e-01,2.537361583041954916e-01,2.542603587073848925e-01,2.547425221370215875e-01,2.551592365207889235e-01,2.555498936293312262e-01,2.558840531322166267e-01,2.561577252527159620e-01,2.563833451679721764e-01,2.565509354708506162e-01,2.566619968399880825e-01,2.567547911523170856e-01,2.568131436436467130e-01,2.568330147508055550e-01,2.567955419464093003e-01,2.567004169426297944e-01,2.565479650288531310e-01,2.563707216308621639e-01,2.561434244730400600e-01,2.558551229805854921e-01,2.555254778642777613e-01,2.551239058608079091e-01,2.546497852030079612e-01,2.541552051780231469e-01,2.535956694355235297e-01,2.529744095160071371e-01,2.522852921835174178e-01,2.515170062040041898e-01,2.506896704757397565e-01,2.498089557889900392e-01,2.488997016641749938e-01,2.479501623193781645e-01,2.469164076964437127e-01,2.458229030247841007e-01,2.445973699237612431e-01,2.433045230178923213e-01,2.419114185560379271e-01,2.404475229588252660e-01,2.388848460445441857e-01,2.372457670723218115e-01,2.355251141805222992e-01,2.336523472335871876e-01,2.316839242461705695e-01,2.296319240497371739e-01,2.274553350132013374e-01,2.250961418800422331e-01,2.226170548369282853e-01,2.199751710906544533e-01,2.170932869568296675e-01,2.139937672526432411e-01,2.106473257280305489e-01,2.070139976385267089e-01,2.029610916254056541e-01,1.986291099692664153e-01,1.936058151862802557e-01,1.880185782994181765e-01,1.816797084005313812e-01,1.738110390920152293e-01,1.642723275256133819e-01,1.513297286739553882e-01,1.319688911424976296e-01,9.671050083390640706e-02,nan
nan,9.723707259339856024e-02,1.329635228629298394e-01,1.523927178345079181e-01,1.646460265300516146e-01,1.744023506141484381e-01,1.821694698565556048e-01,1.884466550270395002e-01,1.938565103349176311e-01,1.987416085499999485e-01,2.030091009126462898e-01,2.069725418496158320e-01,2.104737128284437653e-01,2.136434242626863433e-01,2.167436886079654734e-01,2.195286028986680738e-01,2.220844807465118531e-01,2.245917571597086937e-01,2.268795854293754743e-01,2.289859187724358480e-01,2.310066266234733490e-01,2.329086402748083984e-01,2.346828269262433986e-01,2.363927061762271520e-01,2.380001862703391979e-01,2.395396042610005161e-01,2.409638486353425924e-01,2.423194379849291369e-01,2.435423676132796311e-01,2.447097931816189509e-01,2.458075131061933372e-01,2.468170633215036602e-01,2.477857381201900855e-01,2.486853745975541874e-01,2.495473216610779033e-01,2.503530633445255615e-01,2.510963040469880170e-01,2.517732141092667297e-01,2.523660775393326561e-01,2.528896934326051449e-01,2.533534047639559583e-01,2.537794018657868467e-01,2.541470605411382810e-01,2.544945487322246569e-01,2.547717499153248077e-01,2.549902083805457575e-01,2.551447319465490193e-01,2.552610378865238783e-01,2.553355168481953319e-01,2.553927905351461303e-01,2.554205748123243302e-01,2.553784013814396348e-01,2.552684623878037073e-01,2.551426120504112216e-01,2.549538937780518322e-01,2.547233489858556355e-01,2.544323390722820766e-01,2.540951023718964752e-01,2.537011807508490202e-01,2.532625411357247724e-01,2.527644428842407143e-01,2.522311315206275939e-01,2.516188541073439700e-01,2.509303285854559418e-01,2.501716522559299105e-01,2.493460980508523939e-01,2.484771253947135328e-01,2.475802799259859688e-01,2.466320851584908325e-01,2.456443132563143616e-01,2.445576566253561679e-01,2.433701349311672146e-01,2.420906283158487660e-01,2.407146735026499673e-01,2.392816575398398760e-01,2.377502587003327283e-01,2.361213540010358436e-01,2.344007405346861528e-01,2.325973165072526827e-01,2.306686250601502897e-01,2.286311478172777523e-01,2.264851844597834951e-01,2.241866126622578947e-01,2.217557231049605837e-01,2.191560908894433224e-01,2.163466967900783966e-01,2.132246933052633908e-01,2.100019936550372446e-01,2.064607454655383312e-01,2.025054253453421327e-01,1.982271639356206760e-01,1.933608148440658092e-01,1.877806267492564962e-01,1.815930677471238874e-01,1.739701569095545020e-01,1.647422821101616752e-01,1.516201100826087000e-01,1.301853029161069708e-01,9.701454200715320386e-02,nan
nan,9.781708573726814737e-02,1.331689456154720175e-01,1.516720336869622487e-01,1.650384101607144660e-01,1.742268782631159196e-01,1.817395527622231999e-01,1.880049555619776602e-01,1.934908377028643767e-01,1.981975243451062907e-01,2.024467280361428589e-01,2.062591501728842092e-01,2.097400776188156346e-01,2.128842164625966427e-01,2.158652093702466690e-01,2.186389171545659038e-01,2.212002711892032958e-01,2.235785092986846967e-01,2.258217378995069080e-01,2.278861553391303141e-01,2.298935935128658958e-01,2.317536662735444897e-01,2.335182623990024742e-01,2.352119113573376830e-01,2.368002125057306340e-01,2.383082462000341017e-01,2.397145466771768985e-01,2.409993949779877243e-01,2.422380450965842535e-01,2.433744042099008076e-01,2.444458773635597160e-01,2.454722068243241073e-01,2.464230301258036882e-01,2.473262293430332770e-01,2.481529180626830811e-01,2.489462199074352622e-01,2.496874484280240669e-01,2.503591356313948912e-01,2.509521749457859774e-01,2.514814713908291588e-01,2.519456342748675470e-01,2.523573125323213540e-01,2.527404107606139871e-01,2.530808338355043929e-01,2.533503745762389903e-01,2.535658208048484630e-01,2.537318859656751968e-01,2.538333310133450427e-01,2.538995679771505198e-01,2.539634539626240972e-01,2.539900929255683448e-01,2.539403871121772016e-01,2.538496644147597014e-01,2.537143325449779940e-01,2.535275369500700759e-01,2.532805053180999799e-01,2.529966850309690596e-01,2.526482151985319780e-01,2.522606222833919110e-01,2.518316225890324112e-01,2.513488449792762869e-01,2.508272455632916675e-01,2.502203146417374957e-01,2.495424034957568482e-01,2.488013921139894946e-01,2.479747900918201908e-01,2.471107315536135995e-01,2.462111084644617032e-01,2.452888357499976302e-01,2.442951260686798132e-01,2.432317607704431728e-01,2.420568305989220237e-01,2.408073351844153276e-01,2.394795542074747985e-01,2.380688081467738082e-01,2.365468855051361674e-01,2.349543160377631223e-01,2.332664361086027871e-01,2.314713249589261668e-01,2.295637320280254912e-01,2.275803433615843641e-01,2.254629146340351165e-01,2.232194793657228671e-01,2.207872478012524731e-01,2.182798262687842272e-01,2.155075157143503950e-01,2.125104388304687453e-01,2.092516704839166020e-01,2.057508790309245938e-01,2.019388746434598592e-01,1.976336455971974548e-01,1.928333645678354524e-01,1.874703982624877641e-01,1.809900228074037831e-01,1.738898607398123575e-01,1.645103932244552924e-01,1.510046594135640574e-01,1.312808357827726646e-01,9.587377144732321665e-02,nan
nan,9.779227860736440514e-02,1.324847662894221012e-01,1.518643857788669060e-01,1.639212992704277005e-01,1.740963596237929123e-01,1.813253621440270857e-01,1.874287333984719917e-01,1.928541660534381086e-01,1.975327083506107084e-01,2.016849644300804933e-01,2.054002187000210644e-01,2.088921915149541397e-01,2.120463985904197102e-01,2.148951211463850652e-01,2.176257626975524329e-01,2.201699849751414528e-01,2.225081619022693247e-01,2.246872692608512245e-01,2.267946524872908043e-01,2.287133878492661476e-01,2.305411386703824506e-01,2.322911183050608286e-01,2.339530459062807155e-01,2.355354036680279706e-01,2.370074898808198216e-01,2.383553731502333073e-01,2.396428955122714144e-01,2.408413033608939879e-01,2.419797236866065293e-01,2.430454811475410704e-01,2.440712436954951825e-01,2.450244635370751878e-01,2.458997890344126191e-01,2.467272545803774475e-01,2.474879939687625319e-01,2.482191747651753266e-01,2.488806421544952352e-01,2.494866449233620331e-01,2.500190268307023178e-01,2.504941916501106092e-01,2.509127404265645844e-01,2.512831015185422734e-01,2.516088927374759976e-01,2.518833613139359606e-01,2.520952140990869172e-01,2.522599191662354690e-01,2.523537634186585610e-01,2.524252415788635906e-01,2.524767724163914373e-01,2.525082485797196519e-01,2.524841389919544321e-01,2.523863752526951942e-01,2.522516752945078711e-01,2.520603676672514282e-01,2.518079769289426895e-01,2.515227174853644221e-01,2.511885983163132385e-01,2.507900226238241048e-01,2.503591086594620929e-01,2.498979007534849472e-01,2.493695199774391691e-01,2.487907434226110936e-01,2.481304214180456436e-01,2.473716514199414684e-01,2.465586465735237764e-01,2.456937284452525849e-01,2.448139312082278085e-01,2.438924590665684233e-01,2.429184051891077611e-01,2.418352373918555842e-01,2.407162784904472996e-01,2.394767584142624972e-01,2.381638704131692763e-01,2.367680408833227057e-01,2.352967806168170806e-01,2.337073453204767670e-01,2.320752068544499336e-01,2.302686697876678290e-01,2.284159323784260842e-01,2.264367619952450672e-01,2.243493821315353798e-01,2.221168685104371598e-01,2.197771031493534200e-01,2.172773399784266035e-01,2.145854041336141549e-01,2.115948014489653639e-01,2.084611909202494784e-01,2.050018723215089322e-01,2.011985675180478494e-01,1.970470432611386991e-01,1.923228915692442864e-01,1.869073069479058880e-01,1.807832169867129024e-01,1.733494870355633544e-01,1.640083743996813559e-01,1.508230743703538046e-01,1.330027838896989389e-01,9.902937801717966171e-02,nan
nan,9.684613409553027852e-02,1.335405535562646240e-01,1.520949691770170642e-01,1.640106382646406014e-01,1.731433276316081682e-01,1.806832242584990311e-01,1.867635997368736478e-01,1.920587363072080445e-01,1.966081138524152228e-01,2.008544461265193981e-01,2.045005369956400809e-01,2.078283176951236377e-01,2.110004932041760761e-01,2.138836128982306017e-01,2.165130377273830620e-01,2.190047478941449244e-01,2.213354627045305556e-01,2.234934969875537192e-01,2.255556510215559751e-01,2.274626979284202488e-01,2.292696079384534680e-01,2.309730586651042861e-01,2.326289822725292056e-01,2.341751786959860304e-01,2.356452037070471683e-01,2.369862189172811384e-01,2.382307100329307537e-01,2.394262031056864914e-01,2.405324862587034929e-01,2.415905856706210830e-01,2.426107534327055504e-01,2.435543940714391953e-01,2.444400429102314420e-01,2.452391814271704107e-01,2.459940496630345086e-01,2.466986005567941842e-01,2.473618589978273663e-01,2.479489708950601556e-01,2.484979654862287668e-01,2.489752336665383980e-01,2.494065290211266994e-01,2.497611756353008416e-01,2.500971774148449400e-01,2.503684859715524791e-01,2.505848213940741753e-01,2.507205228407684006e-01,2.508215775501415612e-01,2.508954083000227708e-01,2.509604457839748060e-01,2.509978566232043407e-01,2.509796480667543794e-01,2.508930286026787027e-01,2.507350708698938280e-01,2.505324735325905050e-01,2.502867868175282506e-01,2.500127840722178307e-01,2.496665193395010696e-01,2.492847041437954991e-01,2.488538427488406479e-01,2.483894638940188915e-01,2.478544967049941261e-01,2.472842782194903388e-01,2.466235490302358391e-01,2.458952230939471795e-01,2.450750695196828588e-01,2.442223653645582415e-01,2.433474951560674615e-01,2.424544490077756020e-01,2.414629784494811970e-01,2.404127513186995468e-01,2.392980853931468144e-01,2.380649854866385140e-01,2.367630109028104890e-01,2.354057444521480691e-01,2.339339588728715502e-01,2.324167078319387403e-01,2.307693690944843667e-01,2.290108488922883989e-01,2.271653066998376158e-01,2.252280993226958850e-01,2.231553110614666324e-01,2.209720442186547118e-01,2.186488321806818735e-01,2.161892255362497517e-01,2.135536894764886173e-01,2.106402904733836179e-01,2.075333267151452110e-01,2.040277262287593929e-01,2.003712404452807350e-01,1.962817654394471978e-01,1.914804454198016370e-01,1.862060277609578207e-01,1.800870769401160532e-01,1.727013933595317186e-01,1.630115897045683604e-01,1.503987244929817502e-01,1.329236821617955366e-01,1.006305083700508862e-01,nan
