nan,0.000000000000000000e+00,0.000000000000000000e+00,0.000000000000000000e+00,0.000000000000000000e+00,0.000000000000000000e+00,0.000000000000000000e+00,0.000000000000000000e+00,0.000000000000000000e+00,0.000000000000000000e+00,0.000000000000000000e+00,0.000000000000000000e+00,0.000000000000000000e+00,0.000000000000000000e+00,0.000000000000000000e+00,0.000000000000000000e+00,0.000000000000000000e+00,0.000000000000000000e+00,0.000000000000000000e+00,0.000000000000000000e+00,0.000000000000000000e+00,0.000000000000000000e+00,0.000000000000000000e+00,0.000000000000000000e+00,0.000000000000000000e+00,0.000000000000000000e+00,0.000000000000000000e+00,0.000000000000000000e+00,0.000000000000000000e+00,0.000000000000000000e+00,0.000000000000000000e+00,0.000000000000000000e+00,0.000000000000000000e+00,0.000000000000000000e+00,0.000000000000000000e+00,0.000000000000000000e+00,0.000000000000000000e+00,0.000000000000000000e+00,0.000000000000000000e+00,0.000000000000000000e+00,0.000000000000000000e+00,0.000000000000000000e+00,0.000000000000000000e+00,0.000000000000000000e+00,0.000000000000000000e+00,1.367984377247607741e-01,2.433614971365614388e-01,2.485459022162762599e-01,2.498478210113174169e-01,2.520032293914949983e-01,2.536989567382820776e-01,2.525633988165535970e-01,2.504765890038428422e-01,2.436338092311963188e-01,1.295345607680687405e-01,0.000000000000000000e+00,0.000000000000000000e+00,0.000000000000000000e+00,0.000000000000000000e+00,0.000000000000000000e+00,0.000000000000000000e+00,0.000000000000000000e+00,0.000000000000000000e+00,0.000000000000000000e+00,0.000000000000000000e+00,0.000000000000000000e+00,0.000000000000000000e+00,0.000000000000000000e+00,0.000000000000000000e+00,0.000000000000000000e+00,0.000000000000000000e+00,0.000000000000000000e+00,0.000000000000000000e+00,0.000000000000000000e+00,0.000000000000000000e+00,0.000000000000000000e+00,0.000000000000000000e+00,0.000000000000000000e+00,0.000000000000000000e+00,0.000000000000000000e+00,0.000000000000000000e+00,0.000000000000000000e+00,0.000000000000000000e+00,0.000000000000000000e+00,0.000000000000000000e+00,0.000000000000000000e+00,0.000000000000000000e+00,0.000000000000000000e+00,0.000000000000000000e+00,0.000000000000000000e+00,0.000000000000000000e+00,0.000000000000000000e+00,0.000000000000000000e+00,0.000000000000000000e+00,0.000000000000000000e+00,0.000000000000000000e+00,0.000000000000000000e+00,0.000000000000000000e+00,0.000000000000000000e+00,nan
nan,0.000000000000000000e+00,0.000000000000000000e+00,0.000000000000000000e+00,0.000000000000000000e+00,0.000000000000000000e+00,0.000000000000000000e+00,0.000000000000000000e+00,0.000000000000000000e+00,0.000000000000000000e+00,0.000000000000000000e+00,0.000000000000000000e+00,0.000000000000000000e+00,0.000000000000000000e+00,0.000000000000000000e+00,0.000000000000000000e+00,0.000000000000000000e+00,2.537218519295625016e-02,2.179157273143136550e-02,0.000000000000000000e+00,0.000000000000000000e+00,0.000000000000000000e+00,0.000000000000000000e+00,0.000000000000000000e+00,0.000000000000000000e+00,0.000000000000000000e+00,0.000000000000000000e+00,0.000000000000000000e+00,0.000000000000000000e+00,0.000000000000000000e+00,0.000000000000000000e+00,0.000000000000000000e+00,2.246028532875530420e-02,0.000000000000000000e+00,0.000000000000000000e+00,0.000000000000000000e+00,0.000000000000000000e+00,0.000000000000000000e+00,0.000000000000000000e+00,0.000000000000000000e+00,0.000000000000000000e+00,0.000000000000000000e+00,0.000000000000000000e+00,0.000000000000000000e+00,0.000000000000000000e+00,1.270256994241087123e-01,2.467279236470408532e-01,2.518842564117562133e-01,2.536787868459243755e-01,2.550617720981898096e-01,2.546282663719018347e-01,2.511765428673770062e-01,2.480519065196749584e-01,2.282106002393466115e-01,2.170420071704490805e-01,0.000000000000000000e+00,3.955912766869919273e-02,3.892795353026348021e-02,0.000000000000000000e+00,0.000000000000000000e+00,0.000000000000000000e+00,0.000000000000000000e+00,0.000000000000000000e+00,0.000000000000000000e+00,0.000000000000000000e+00,0.000000000000000000e+00,0.000000000000000000e+00,0.000000000000000000e+00,0.000000000000000000e+00,0.000000000000000000e+00,0.000000000000000000e+00,0.000000000000000000e+00,2.303550500205465285e-02,0.000000000000000000e+00,0.000000000000000000e+00,2.190595062919753477e-02,0.000000000000000000e+00,0.000000000000000000e+00,0.000000000000000000e+00,0.000000000000000000e+00,0.000000000000000000e+00,0.000000000000000000e+00,3.356742144330094550e-03,0.000000000000000000e+00,0.000000000000000000e+00,0.000000000000000000e+00,0.000000000000000000e+00,0.000000000000000000e+00,2.975676268426219635e-03,0.000000000000000000e+00,1.197549977426206821e-02,0.000000000000000000e+00,0.000000000000000000e+00,8.427627509305731304e-03,0.000000000000000000e+00,0.000000000000000000e+00,0.000000000000000000e+00,0.000000000000000000e+00,0.000000000000000000e+00,nan
nan,1.308267049960923356e-02,2.186725575923199535e-02,7.324642094354306618e-03,6.637594160190492081e-03,1.318916595820813706e-02,1.965509639291512789e-02,1.814970422474553730e-02,4.039273511400847533e-02,5.612873575667930159e-02,1.474292882937739378e-02,5.792093392464763707e-02,9.668351038588058471e-03,7.938904514835631865e-02,5.471485009106195896e-02,3.888782673205965629e-02,6.174313202191968053e-02,7.837208914830838535e-02,9.654480260857704887e-02,6.431807458814517431e-02,4.535474756540083807e-02,6.132051146163951943e-02,1.112958945682874026e-02,6.331655115415478485e-02,5.494459702195571976e-02,6.226689893146374749e-02,5.119297607457219679e-02,1.022553987427459454e-01,1.100893917943082528e-01,7.288429498541285079e-02,6.981713436166524234e-02,1.169440147601093077e-01,1.093591834985208483e-01,1.822726564821658748e-02,9.834768799066499756e-02,5.000394753611566573e-02,4.004076828783245667e-02,6.767118476634742009e-03,4.521082428834544836e-02,2.564690664292675060e-02,7.295731383979968399e-02,8.033697863567830499e-02,3.298471941456292827e-02,1.082989891721989756e-01,1.344067495769296905e-01,2.111388966271907641e-01,2.403453255591472548e-01,2.508706973880145408e-01,2.521079517169179662e-01,2.567654934901633101e-01,2.550500262611259950e-01,2.509114752152434846e-01,2.440495297819170184e-01,2.334595874767124157e-01,2.260323540965086808e-01,1.346597361744304999e-01,1.813354629069143797e-01,4.115788574747921563e-02,9.214394592043514964e-02,1.162904082397357430e-01,1.477011273234889455e-01,1.352922774284714413e-01,7.733328328445437938e-02,2.275845315920630579e-02,2.195606695489639784e-02,3.444366560164016655e-02,9.705575493818709154e-02,7.680963555091246953e-02,2.134332928458684484e-02,6.951319720028907578e-02,8.611822013066916526e-02,5.048304888291845621e-02,8.949910499621428761e-02,5.184892577986201234e-02,8.846946496196397836e-02,5.419808994572929139e-02,3.759004484159224335e-02,4.118006552150810240e-02,7.284805723502799091e-02,8.807780933020445055e-03,7.810714902312144992e-02,2.943222273597399449e-02,5.896833851200802140e-02,2.268441832872090599e-02,5.799072808128653139e-02,6.008910018207858778e-02,4.714604931295991730e-02,6.911819136411312403e-02,5.481010727477735739e-02,6.493437069582638776e-02,6.020851827760170805e-02,4.750012386026844502e-02,2.523775106234959001e-03,4.854706615784930984e-02,2.205438890196325177e-02,3.895701077171352666e-02,4.063222872067486641e-02,1.365349136611755144e-02,3.579656249815919757e-03,nan
nan,2.227510403614734597e-02,3.407874644120098551e-02,3.689932827517262287e-02,5.676556906389990109e-02,6.359151348987050756e-02,6.713258921891299136e-02,7.095572763138380257e-02,7.425710164054652451e-02,7.719262360217671315e-02,6.930170705320939928e-02,8.230381914851682412e-02,8.439147962374118905e-02,9.188094208652111683e-02,9.412766299933822411e-02,9.625714044874536524e-02,9.854586785494028056e-02,1.005446017454955376e-01,1.021927006022828460e-01,1.038200890900869422e-01,1.057978494443362893e-01,1.094980261616424477e-01,1.127606402892156745e-01,1.166710180018021986e-01,1.198189939287335887e-01,1.223140942304585810e-01,1.245093334619400416e-01,1.272560697099651139e-01,1.294721800870502204e-01,1.318387223070663361e-01,1.346496481911822751e-01,1.373855357386433440e-01,1.394648806023002230e-01,1.447132901780137371e-01,1.480864341970569154e-01,1.512453924133383143e-01,1.262605253250264625e-01,1.607719671679830042e-01,1.512968527696124110e-01,1.703257348832203921e-01,1.750490289428049406e-01,1.709282656497833064e-01,1.545948860073685371e-01,1.990558985065380704e-01,2.083189541682773649e-01,2.195510613664921618e-01,2.323623641551063324e-01,2.388836615770595084e-01,2.427877020741877889e-01,2.445134147800824831e-01,2.442058397703344985e-01,2.404819276856405008e-01,2.353621074818798842e-01,2.287635981605966873e-01,2.211646625536984878e-01,2.118677065392267911e-01,1.993219088802740957e-01,1.104320963472499029e-01,1.749408116701410554e-01,1.718343386128642347e-01,1.673293516531751957e-01,1.635809677076519031e-01,1.595343497318019721e-01,1.536452414205146666e-01,1.507539927320709905e-01,1.473081058842626023e-01,1.430364021152837062e-01,1.396668027237215337e-01,1.371826444650196541e-01,1.301962370778119160e-01,1.310823173177893264e-01,1.291143115179949896e-01,1.120220527840732339e-01,1.221524688251231505e-01,1.197994848373465926e-01,1.145863377839503872e-01,1.134711191706367639e-01,1.114596291154734270e-01,1.100354203234897854e-01,9.696268386227398228e-02,1.032529386791184861e-01,1.006187078576338406e-01,8.740668095584698538e-02,9.493096766497793881e-02,9.219794258842883838e-02,8.953164151674165849e-02,8.672435640280795610e-02,8.436120193041138360e-02,8.172017429787446774e-02,7.948358129123203608e-02,7.720315200745853090e-02,7.512498657924122913e-02,6.615730034375730262e-02,6.467460276441622247e-02,6.004647617686993677e-02,5.602638204091192620e-02,5.213969769443772828e-02,4.212444125003302065e-02,2.174915160470258790e-02,nan
nan,2.251751421703429568e-02,3.754519690697163958e-02,4.822821139102544119e-02,5.772347286162210489e-02,6.314747378723233051e-02,6.704034089538574159e-02,7.096510506651296235e-02,7.434553422960535340e-02,7.706939257755779371e-02,7.986431890785447574e-02,8.304021833058436441e-02,8.670259988066125745e-02,9.074876810952475781e-02,9.359580735844255650e-02,9.590208027972825511e-02,9.809268480934457690e-02,1.002069035338490066e-01,1.020744689467733557e-01,1.041469521912375545e-01,1.065156610279105326e-01,1.093199597106390974e-01,1.128955683261505943e-01,1.159239275524620028e-01,1.189435875010458193e-01,1.215112594284366576e-01,1.240781369926409333e-01,1.267910346698892243e-01,1.292263402260359906e-01,1.318855909174595775e-01,1.345493199677170737e-01,1.372246101402517238e-01,1.402488343815307403e-01,1.438145264928869516e-01,1.476701418537714194e-01,1.510859563191785659e-01,1.553406049953156287e-01,1.599365247015862024e-01,1.645987993935263405e-01,1.691976662742488147e-01,1.743628033830183777e-01,1.807329185136085092e-01,1.880390338207386380e-01,1.958516335389223761e-01,2.034749762483338276e-01,2.124338207735333439e-01,2.195265236741429649e-01,2.257042122116783567e-01,2.297969166055103818e-01,2.315779959783291764e-01,2.314927638369971008e-01,2.287451757828248278e-01,2.248221301049641019e-01,2.191177016653988452e-01,2.128369034488738765e-01,2.046607191005846427e-01,1.940638708791990186e-01,1.850563210170571571e-01,1.756822845445966674e-01,1.708497569859396270e-01,1.666984138935312110e-01,1.631288552577851159e-01,1.585049570112438133e-01,1.539146555825335327e-01,1.501496594455799249e-01,1.466146002459125242e-01,1.430496884271365843e-01,1.397629618000392204e-01,1.365901244834647754e-01,1.336410055494912097e-01,1.310043856389216388e-01,1.278837208954081983e-01,1.248363212959604784e-01,1.219835520540991786e-01,1.194536179892063538e-01,1.164662755387663173e-01,1.138136030834907275e-01,1.114868173327537848e-01,1.092957302212315962e-01,1.068438871585426220e-01,1.036298010243250911e-01,1.006196263108597166e-01,9.784475573738055099e-02,9.505438889684633685e-02,9.220429801426174854e-02,8.987093986119569500e-02,8.689117901186102499e-02,8.406330441485043714e-02,8.172392327431092507e-02,7.938984897225064008e-02,7.704342929280004471e-02,7.421360446494498775e-02,7.024061366480177648e-02,6.563623560821854608e-02,6.083615013056617449e-02,5.631559271831759750e-02,5.127147810376440906e-02,4.271594740742191976e-02,2.455211092690615451e-02,nan
nan,2.341912879615737353e-02,3.907064647639986454e-02,5.005431017778796260e-02,5.802939226386270161e-02,6.291426210254402740e-02,6.711689621197483580e-02,7.082341503626288226e-02,7.417052470269278053e-02,7.718756942574742097e-02,8.018943554709204169e-02,8.329064073961225945e-02,8.696825505638261511e-02,9.014523223747465674e-02,9.291968077343712440e-02,9.543885438681247446e-02,9.773449172668635665e-02,9.996761515593921565e-02,1.020965918924138099e-01,1.042933297755987559e-01,1.068290311579314367e-01,1.096340484392422931e-01,1.126592208420712504e-01,1.155285048808521731e-01,1.184132937038464284e-01,1.210470149569866094e-01,1.236588970626612966e-01,1.262910994984049184e-01,1.289217119954635948e-01,1.315557864379202080e-01,1.342617920791341068e-01,1.370092951718575036e-01,1.400107728026701859e-01,1.437458656574094606e-01,1.469900389390458306e-01,1.506477608861495066e-01,1.546563070389239958e-01,1.589231650640831883e-01,1.634463394848491569e-01,1.679080972648649417e-01,1.728685521221514088e-01,1.784837232683368358e-01,1.847859746575877260e-01,1.916325071602278662e-01,1.980175075734880719e-01,2.047493186565918499e-01,2.113336907218625882e-01,2.156869246315847866e-01,2.187208834137195912e-01,2.202286519994626768e-01,2.198780739007219487e-01,2.181403637330325551e-01,2.149283715919973192e-01,2.106321516925158677e-01,2.048070697703508192e-01,1.978963730145932298e-01,1.903393725472906362e-01,1.825039082468481177e-01,1.752518265827061328e-01,1.702089837027680463e-01,1.655361758510480730e-01,1.615422631658610664e-01,1.573764299616722540e-01,1.534007312968462822e-01,1.496079607577693871e-01,1.461504168103593959e-01,1.427149039846557499e-01,1.393376403459012092e-01,1.362587629656389909e-01,1.333540472680365407e-01,1.306252234378286747e-01,1.275301777178600438e-01,1.247112590703641083e-01,1.218340449637502487e-01,1.190678468875290968e-01,1.162786309092788267e-01,1.136260620277257660e-01,1.112808526039005819e-01,1.088656376387450442e-01,1.064029427459409621e-01,1.035567457381851714e-01,1.006389229231383770e-01,9.790664471133489477e-02,9.514571369922555921e-02,9.232202534830431795e-02,8.971527185625871592e-02,8.701162600550529924e-02,8.425829462404807457e-02,8.167687330139392077e-02,7.914121567005626134e-02,7.649452477517744431e-02,7.346326877125271271e-02,6.990334219674185223e-02,6.567911612216557893e-02,6.135667607773493543e-02,5.658796764062010848e-02,5.066553330056917936e-02,4.126673001549584219e-02,2.519151183386141718e-02,nan
nan,2.491526700595278823e-02,4.086144756240041309e-02,5.098428529851552204e-02,5.777594028089215461e-02,6.287231841219959039e-02,6.701425571148048044e-02,7.063797095438253959e-02,7.401472474700009074e-02,7.717580077602353983e-02,8.022161530731290735e-02,8.337442480522526400e-02,8.659138892902124018e-02,8.962980613107335293e-02,9.242980065183246940e-02,9.496638220448154477e-02,9.737562068950582350e-02,9.967236170885102053e-02,1.019377757404633100e-01,1.042641746698348831e-01,1.067810099245544569e-01,1.094799729911185848e-01,1.123256158454452036e-01,1.151443108688745692e-01,1.178623072130452337e-01,1.205335982038816395e-01,1.231610098800746955e-01,1.257889619345126109e-01,1.284034077677268237e-01,1.310837359941474101e-01,1.338183727104130805e-01,1.366135344329852397e-01,1.396896385520489670e-01,1.429507187906794707e-01,1.463791340933039975e-01,1.498903333432697882e-01,1.536927214466160818e-01,1.576750830148944127e-01,1.619470926223846030e-01,1.663838190540981032e-01,1.708430244453364721e-01,1.759588548359005411e-01,1.813893361075453181e-01,1.868764683221656453e-01,1.926317394089884782e-01,1.979064553018431982e-01,2.028979292819617641e-01,2.064656183927270072e-01,2.090955520774639143e-01,2.102740739047033180e-01,2.101975345612654977e-01,2.085715995273563217e-01,2.063552261746023908e-01,2.022416457882852403e-01,1.979392675862933770e-01,1.918976689834764882e-01,1.861553629905809970e-01,1.793766691082369635e-01,1.737285340916254750e-01,1.687097609803058784e-01,1.641696515596440809e-01,1.601380736161193696e-01,1.563288634333599714e-01,1.524612496106517168e-01,1.487693929590299946e-01,1.453502771365276225e-01,1.420386700887589504e-01,1.387908150511349969e-01,1.357848589923250637e-01,1.328545471560566016e-01,1.300041225821987056e-01,1.271157129270230057e-01,1.243425894354674432e-01,1.215709196735703657e-01,1.188136553801507483e-01,1.160704594774256970e-01,1.134824957769095810e-01,1.109661619703558172e-01,1.084943045046110194e-01,1.059425813664283955e-01,1.032071685401212968e-01,1.004742913111952712e-01,9.776444124280808667e-02,9.498128638754081698e-02,9.230093706297287648e-02,8.959454628109138341e-02,8.693842472590451731e-02,8.424021558712802005e-02,8.156502578036942119e-02,7.892719500522571430e-02,7.613992739196250026e-02,7.304156042512972846e-02,6.957930844477480670e-02,6.568860687331713744e-02,6.133175855091381468e-02,5.646221870457049374e-02,5.017746511074773486e-02,4.172516449074530759e-02,2.636496709682600859e-02,nan
nan,2.532580961008077877e-02,4.098138470121116816e-02,5.103287729500206871e-02,5.776891209332043337e-02,6.274625587869391008e-02,6.673453292305951690e-02,7.046175180451791364e-02,7.380964177304583096e-02,7.701699968813546793e-02,8.012558316336365616e-02,8.321935322714833771e-02,8.628241917101944769e-02,8.917321497598183766e-02,9.195437813012566353e-02,9.451941057739113305e-02,9.697236565628665483e-02,9.933585873522188248e-02,1.016899420102155560e-01,1.040929715718769133e-01,1.066131774167259350e-01,1.092585506865198508e-01,1.119102777098282264e-01,1.146361886998998603e-01,1.173184870183924117e-01,1.199395968694649539e-01,1.225810874386348281e-01,1.251939477346117602e-01,1.278098045215559087e-01,1.304517661044484189e-01,1.331562183194059112e-01,1.360564623537098838e-01,1.389930722693256682e-01,1.421232909929354693e-01,1.454382932757609104e-01,1.488108479168047116e-01,1.524293127764867473e-01,1.561478165903240900e-01,1.599596773219477686e-01,1.642985265435292774e-01,1.686232244936036184e-01,1.729821920210211084e-01,1.777782326182839878e-01,1.826425626114938638e-01,1.872871301108119668e-01,1.916196123031304599e-01,1.954268900213142757e-01,1.987165695210561522e-01,2.006342941517065825e-01,2.015263523204513241e-01,2.017925848732459726e-01,2.002907174998514173e-01,1.981428161113825692e-01,1.948215293304768059e-01,1.909280341441780271e-01,1.863867825147108581e-01,1.813138324758542808e-01,1.759675248018490734e-01,1.711647514169131745e-01,1.665528473020846112e-01,1.624322842197483963e-01,1.586053645637734710e-01,1.548034198104367432e-01,1.512382177184238563e-01,1.477288627168680812e-01,1.443970446816251196e-01,1.411764605929996808e-01,1.380489296545073796e-01,1.350713048339346467e-01,1.321694202348892566e-01,1.293320417073474671e-01,1.265576463595584622e-01,1.237743615800762920e-01,1.210519216502091433e-01,1.183407442366189999e-01,1.156978771954833562e-01,1.131302349624965092e-01,1.106018263260298840e-01,1.080790257596348919e-01,1.055182518073970177e-01,1.028764734449582052e-01,1.002043374774564399e-01,9.750196528579734012e-02,9.481373086707849118e-02,9.211447583343766732e-02,8.945743594434049650e-02,8.676881973172351215e-02,8.408588697313042204e-02,8.136689938004257328e-02,7.862930818248486942e-02,7.574410007007885415e-02,7.267527415199449836e-02,6.923843389931297332e-02,6.545185096782762946e-02,6.115609160606419459e-02,5.604317283210250716e-02,4.993534863276200692e-02,4.088379558324468921e-02,2.419415094220458279e-02,nan
nan,2.552684916712661886e-02,3.948398705344062509e-02,5.102596528688996269e-02,5.753679776677526891e-02,6.244288570243754222e-02,6.657171113767847148e-02,7.012406213549401968e-02,7.357636686345569998e-02,7.677964980871845868e-02,7.984113828599828655e-02,8.287410189121706405e-02,8.587643827604801716e-02,8.870584923624347251e-02,9.145454002535009785e-02,9.403579483201957023e-02,9.650386685754461236e-02,9.892633459280376906e-02,1.013117532166975254e-01,1.037692857817719416e-01,1.062758169086368554e-01,1.088369720178016670e-01,1.114290106177508316e-01,1.141014400220719954e-01,1.166658147784135069e-01,1.193076038648065995e-01,1.219040326782443312e-01,1.244875688237292860e-01,1.270603816189904978e-01,1.297062223577901963e-01,1.323810672920042175e-01,1.352081160221234313e-01,1.381028335291237252e-01,1.411738404964279214e-01,1.442626524018539302e-01,1.475565519694250483e-01,1.509450242292683098e-01,1.545144989041574157e-01,1.581438774761088628e-01,1.619401683638111988e-01,1.659061126977954548e-01,1.698571688461779083e-01,1.739972690015198498e-01,1.780729413582995413e-01,1.818948138625399447e-01,1.854961530282338011e-01,1.888020191148628568e-01,1.912913805793027833e-01,1.931871348066888650e-01,1.940058098785820140e-01,1.939118463919096425e-01,1.927417916265226350e-01,1.908783527872910668e-01,1.884878351872887325e-01,1.849226205978034276e-01,1.812819996500596720e-01,1.770565860085610010e-01,1.727234400046263330e-01,1.685048882360311584e-01,1.642745601586299009e-01,1.603881530081308626e-01,1.568170526778811524e-01,1.532557496157692656e-01,1.498159682317960484e-01,1.464490095273060510e-01,1.432601554618728179e-01,1.401418674630081351e-01,1.371632766953778393e-01,1.342118580682682971e-01,1.313977206248678198e-01,1.286031117765008003e-01,1.258810495791849171e-01,1.231732140615924842e-01,1.204604267373361737e-01,1.178417743079175628e-01,1.152205701297767532e-01,1.126604479218707572e-01,1.101467835612565810e-01,1.076095621048666628e-01,1.050519534896286744e-01,1.024578896417139007e-01,9.983098475765159185e-02,9.720740872734738580e-02,9.450837904180317550e-02,9.186410487925841806e-02,8.919806526253690193e-02,8.652338049095506523e-02,8.380788390514319619e-02,8.107893861473802755e-02,7.827092439252092415e-02,7.536540678875325305e-02,7.225740042735187552e-02,6.887080388113796248e-02,6.509640020568777108e-02,6.084344832848483098e-02,5.599559303314962516e-02,4.950502821434469430e-02,3.954749009213374966e-02,2.497457705450870091e-02,nan
nan,2.398557370925717344e-02,3.955581649903043562e-02,5.043774881817582323e-02,5.695417227683496897e-02,6.185889497102192019e-02,6.619656143833052564e-02,6.983076498260551435e-02,7.317804964549737279e-02,7.640253601602392530e-02,7.950723738442795618e-02,8.248929365215607046e-02,8.539272582697658709e-02,8.821567911866787237e-02,9.091850421055186482e-02,9.350595161729435834e-02,9.600844522398897796e-02,9.845871871336492331e-02,1.008929293479110811e-01,1.033010201391812294e-01,1.058140948025103889e-01,1.083423281769528151e-01,1.109100200029737721e-01,1.134436008618797398e-01,1.160114197183551438e-01,1.185772239435661513e-01,1.211334624946901750e-01,1.236838874323241827e-01,1.262670259683693341e-01,1.288619050764178708e-01,1.315332438152439776e-01,1.342473587326496742e-01,1.370508213197080827e-01,1.399778012610223277e-01,1.429791229907249051e-01,1.460916632952037331e-01,1.493051212086410062e-01,1.526504836268581244e-01,1.560084777767026809e-01,1.595897904706617965e-01,1.630556624172754820e-01,1.666682703666642063e-01,1.703541471082494485e-01,1.737189279116430063e-01,1.771711949671300745e-01,1.803240163571113164e-01,1.828231423397197464e-01,1.850159726808179861e-01,1.861188104069279037e-01,1.867495482273822949e-01,1.869499813754221251e-01,1.863076514720365950e-01,1.845021794150948913e-01,1.820639310928737764e-01,1.794740160044298594e-01,1.764440913718710591e-01,1.726686207972772391e-01,1.691695197080140267e-01,1.654006704943038752e-01,1.616537061904871619e-01,1.581105921744458409e-01,1.547781166631057304e-01,1.514785369574738194e-01,1.481614937167832491e-01,1.450454685876881866e-01,1.419527936796609047e-01,1.389854421051828770e-01,1.360833131839684629e-01,1.332726897881563177e-01,1.304614530549944029e-01,1.277682469760962891e-01,1.250835843913192802e-01,1.224317348811361783e-01,1.197962151217532717e-01,1.171810296413378361e-01,1.146313379233722674e-01,1.120894812029756132e-01,1.095772661807308535e-01,1.070767881332570226e-01,1.045240260057207077e-01,1.019501795068667727e-01,9.938368226650617920e-02,9.678360597484415850e-02,9.414226845004819433e-02,9.151193627003732789e-02,8.884340809969841490e-02,8.617862526582224791e-02,8.346939841239817137e-02,8.070522002861314770e-02,7.786299332807485041e-02,7.492435537933855860e-02,7.181357867766524627e-02,6.829443678816177199e-02,6.469371734564136056e-02,6.052182500457124054e-02,5.544214764562802739e-02,4.898402363414527255e-02,3.868041556512639978e-02,2.395456537943771794e-02,nan
nan,2.352894731683554536e-02,3.895243631677745150e-02,5.006091085744637792e-02,5.675156010721987138e-02,6.177241591127078518e-02,6.584307685844967284e-02,6.941064107580349751e-02,7.273994512041384586e-02,7.592633990804394106e-02,7.903977016540025824e-02,8.198286883503942690e-02,8.487441796291780860e-02,8.765557277857334573e-02,9.032840164396774285e-02,9.292559446071296803e-02,9.542745539321920156e-02,9.790434730679750674e-02,1.003381574117924169e-01,1.027824557385154242e-01,1.052440603557654175e-01,1.077310417328761205e-01,1.102406745709158947e-01,1.127523388090477807e-01,1.152647305530141442e-01,1.177755458334399236e-01,1.202887080825269794e-01,1.227912041193605919e-01,1.253198668694339157e-01,1.278940264197861443e-01,1.304584033341017468e-01,1.331357251164238531e-01,1.358731049918538158e-01,1.386781517873135194e-01,1.415793129445114262e-01,1.445118336992670949e-01,1.475531939403456338e-01,1.506172662600580303e-01,1.538075564299223041e-01,1.569500043524110211e-01,1.602724230909532699e-01,1.633735251062870542e-01,1.666201748893340051e-01,1.696378803391578038e-01,1.725877403231100560e-01,1.750987821556077018e-01,1.771364506499066294e-01,1.790918565075686197e-01,1.801688713129068753e-01,1.807488331969281659e-01,1.808656023335759588e-01,1.800661447523486114e-01,1.786110511526446676e-01,1.768972144304604699e-01,1.746226582814110473e-01,1.718579747146851966e-01,1.687215198623928381e-01,1.656309903718494458e-01,1.621806564876576151e-01,1.590041792759750716e-01,1.557853193108908463e-01,1.526745032470643859e-01,1.495281403540416054e-01,1.464981436373934964e-01,1.434656014361301024e-01,1.405701101980856571e-01,1.377274788505828962e-01,1.349017503389196015e-01,1.321587199325451323e-01,1.294862923121902487e-01,1.268116629336348555e-01,1.241859085362095189e-01,1.215970770902816411e-01,1.190087056896572959e-01,1.164616258455992009e-01,1.139164587845893639e-01,1.114524611474388555e-01,1.089512907113742990e-01,1.064382410749705743e-01,1.039387291860878332e-01,1.014064279990941758e-01,9.885947795351163192e-02,9.627868009335310839e-02,9.368515780773147006e-02,9.105093694587576558e-02,8.841311012250699375e-02,8.575408010940008263e-02,8.302720464177078263e-02,8.026764622595593257e-02,7.739602054532096487e-02,7.440834717000395504e-02,7.126136168662575154e-02,6.791220695206788560e-02,6.419210268025205002e-02,6.005022496226508633e-02,5.499817424583695186e-02,4.833919365621311415e-02,3.836114357223130433e-02,2.326527650204147230e-02,nan
nan,2.454309635391431141e-02,4.091326037583675745e-02,4.994472597879230646e-02,5.616958770936218703e-02,6.137257357752608916e-02,6.548532219468107540e-02,6.892547643932907253e-02,7.226113373674397655e-02,7.538007592895652753e-02,7.847163224573781848e-02,8.144891939059591135e-02,8.427385796675514185e-02,8.703172575717155190e-02,8.969382431538240608e-02,9.226957651233663738e-02,9.479500582874919590e-02,9.727195309296696180e-02,9.971221656525756927e-02,1.021420367538491969e-01,1.045711795146544304e-01,1.070463867464517133e-01,1.094950529873938566e-01,1.119617297701146069e-01,1.144216827518175772e-01,1.168867927391058353e-01,1.193452305080708598e-01,1.218252288719657295e-01,1.242812198811012181e-01,1.268080262411244719e-01,1.293551673767172061e-01,1.319298550519434898e-01,1.345628475166172622e-01,1.372712834325279796e-01,1.399865888774985412e-01,1.427699080201522142e-01,1.456649633301645430e-01,1.485144817314068832e-01,1.513694092977268812e-01,1.543295742457043151e-01,1.572901039015108804e-01,1.601926192522005188e-01,1.630722236563638128e-01,1.658224670395445077e-01,1.681283206854692347e-01,1.703571832832124766e-01,1.721484297876734459e-01,1.736314120014461893e-01,1.746507634440344625e-01,1.751266795621431172e-01,1.750532253952979123e-01,1.745987438794171231e-01,1.733539447243665488e-01,1.717598416502638392e-01,1.698805222652282620e-01,1.675487964042271516e-01,1.649024409339912844e-01,1.621291047219504122e-01,1.592128527344421340e-01,1.563296497985084410e-01,1.533828722296191049e-01,1.504452876134368677e-01,1.475095163609921600e-01,1.446569007523865746e-01,1.417851813310955778e-01,1.390408817009012588e-01,1.362977610788755345e-01,1.336279044594373688e-01,1.309649981353831483e-01,1.283468166215365469e-01,1.257715517311360220e-01,1.232073389888745513e-01,1.206445938505899540e-01,1.181462169936066259e-01,1.156570056098794180e-01,1.131746733357426177e-01,1.107050346109415551e-01,1.082185842796508091e-01,1.057509649309480160e-01,1.032701914415469491e-01,1.007610637664763803e-01,9.823939817227481108e-02,9.569907831548543631e-02,9.312248866540609460e-02,9.051901644838325489e-02,8.788541791175495665e-02,8.522475085202636802e-02,8.251890314648983871e-02,7.972818254261063164e-02,7.685762547955540813e-02,7.387656211610880985e-02,7.072956844210086247e-02,6.726081705074693495e-02,6.360967762743459375e-02,5.947405737630152844e-02,5.457177015468914205e-02,4.855084398631965420e-02,3.883685280565014192e-02,2.440756523076442058e-02,nan
nan,2.479742710745531931e-02,3.987801017205740151e-02,4.970736837087307708e-02,5.576128431026023541e-02,6.075777980088811758e-02,6.491242718463656469e-02,6.843766385595549673e-02,7.172300636338252433e-02,7.478133577562429135e-02,7.784354117772096515e-02,8.080962987345363668e-02,8.363878322547985134e-02,8.634955600017066302e-02,8.899437418001217293e-02,9.158204875426785574e-02,9.409139796382373633e-02,9.656041491994067638e-02,9.899843970425734052e-02,1.014002367507122471e-01,1.038390287421754876e-01,1.062435842399110791e-01,1.086788474845467589e-01,1.111021140871694679e-01,1.135034994644108230e-01,1.159309905339976215e-01,1.183474286514255014e-01,1.207620070573548060e-01,1.231962396777658564e-01,1.256309695555138384e-01,1.280996515161994254e-01,1.306092279814889123e-01,1.331715125378510889e-01,1.357217595340290961e-01,1.383399036888877942e-01,1.409693521543193828e-01,1.436376590469744807e-01,1.463361395831714595e-01,1.490323075707598033e-01,1.517202059115707879e-01,1.544329669357686063e-01,1.570024509028934423e-01,1.595035744735734395e-01,1.618680546686078470e-01,1.639522038335187171e-01,1.659793113477868731e-01,1.675124115546272607e-01,1.687817978601600377e-01,1.695222622916344180e-01,1.698043983043416305e-01,1.699087608412844230e-01,1.694507407961138856e-01,1.683783765726939441e-01,1.670830461680267165e-01,1.654188197963423201e-01,1.634161409457160485e-01,1.611054309529963702e-01,1.587098238442205822e-01,1.561247841454746488e-01,1.534386044204354704e-01,1.508166819062156383e-01,1.480595298741947952e-01,1.454254597564230700e-01,1.427238039834140271e-01,1.400782481038611582e-01,1.374106130882128129e-01,1.347986625395830029e-01,1.322188494697741634e-01,1.296706997690416641e-01,1.271353186255570200e-01,1.246231562480825394e-01,1.221260369564802911e-01,1.196439653299922468e-01,1.171982304831123006e-01,1.147424509625693950e-01,1.123023748056964505e-01,1.098456349827698075e-01,1.074283085778547780e-01,1.049836928484597226e-01,1.025250567090583986e-01,1.000535149514963640e-01,9.756506823716665222e-02,9.503861455036335948e-02,9.248811277317384172e-02,8.990343715684373516e-02,8.729280989388810141e-02,8.462989171148752043e-02,8.193654474252359821e-02,7.914103823355220224e-02,7.622669401544562851e-02,7.322758006034979505e-02,7.006176306928066366e-02,6.667621063715332974e-02,6.297990607496439797e-02,5.880854827786383826e-02,5.409153376737807495e-02,4.736891819871792697e-02,3.880812042732532940e-02,2.324872123187290279e-02,nan
nan,2.456919170986728365e-02,4.126866144028782518e-02,4.934310745863260128e-02,5.512988322689656162e-02,6.006754064068434151e-02,6.416256118784023632e-02,6.765976384277430644e-02,7.096428605597079886e-02,7.411706675719177684e-02,7.717816424252629814e-02,8.007038426981583079e-02,8.291099324547472615e-02,8.561844798627651909e-02,8.823792139445429950e-02,9.081293319180355761e-02,9.333146076084278264e-02,9.577868658931595891e-02,9.820522913009030463e-02,1.006232489289481391e-01,1.030124669701825008e-01,1.053974972922752107e-01,1.077922034422578723e-01,1.101718270218903090e-01,1.125230655700967392e-01,1.149055935152080710e-01,1.172660559155472570e-01,1.196353519265122706e-01,1.220151586978947822e-01,1.243889186968472199e-01,1.267678387063258250e-01,1.291925351194484761e-01,1.316413202012009231e-01,1.340469645979816549e-01,1.366002794918405039e-01,1.390778203955154169e-01,1.416085721208448778e-01,1.441076828458395798e-01,1.466361879414003477e-01,1.490549682409394450e-01,1.514517904754286437e-01,1.538587403035866219e-01,1.561109042308194417e-01,1.581635237787950010e-01,1.600338624712007440e-01,1.617606243488535767e-01,1.630260571199834418e-01,1.641468009987820387e-01,1.647469949123844535e-01,1.652171135483733178e-01,1.651437848587311297e-01,1.646006415771140152e-01,1.638399719433639712e-01,1.627546277492564752e-01,1.612635689084701562e-01,1.594458892645956305e-01,1.575285616299966496e-01,1.553346486222680900e-01,1.531188753249154433e-01,1.506743679984865192e-01,1.482501710951034390e-01,1.457298122938913143e-01,1.432556712691470946e-01,1.406963007126394438e-01,1.381092862681226052e-01,1.356889731247175601e-01,1.332102845471837549e-01,1.307353407595228667e-01,1.282775144531985434e-01,1.257800517480758551e-01,1.233761080034750102e-01,1.209450880007688356e-01,1.185418628013810149e-01,1.161466062933440846e-01,1.137496287607082518e-01,1.113537514455502087e-01,1.089441729284229832e-01,1.065489537960091215e-01,1.041363436909958917e-01,1.017174429952825698e-01,9.927334454867602076e-02,9.679796470921608886e-02,9.429508706710548749e-02,9.177393047650639346e-02,8.920752882671942330e-02,8.660568973017523930e-02,8.395993675568932946e-02,8.125544062650974508e-02,7.846673297735437536e-02,7.554737435086111841e-02,7.252516825924822108e-02,6.934117088620884994e-02,6.598601588699609666e-02,6.227260751165661357e-02,5.811161695686899165e-02,5.334958497233607821e-02,4.734521769116668832e-02,3.718488091527065442e-02,2.301918120010415514e-02,nan
nan,2.614729294963718739e-02,4.081194799093004755e-02,4.896563183260031066e-02,5.463371945761680282e-02,5.924904073676084959e-02,6.322294196251708465e-02,6.690884193649654366e-02,7.022612612787607067e-02,7.339084375901569479e-02,7.639754887951724638e-02,7.930906284472105661e-02,8.211003238525894921e-02,8.481078794261170950e-02,8.744010509827776501e-02,8.999255068694805848e-02,9.248476532276803108e-02,9.493635157450469597e-02,9.734600072382278146e-02,9.974743146462031196e-02,1.021081120547836230e-01,1.044628505381494099e-01,1.068126044006100506e-01,1.091378999081608764e-01,1.114594944896545731e-01,1.137932155514008864e-01,1.160995270167473475e-01,1.184125529776709346e-01,1.207444783812416933e-01,1.230448072918200880e-01,1.253662840856631933e-01,1.276702062000150406e-01,1.300507514158822375e-01,1.323957909099534036e-01,1.347564397642220801e-01,1.371467602128465801e-01,1.395182651898297377e-01,1.418217422212845746e-01,1.441530100874740261e-01,1.464506139429709586e-01,1.485570221712013972e-01,1.508044272757168291e-01,1.527369223603207704e-01,1.545822604556895685e-01,1.563000119780447172e-01,1.576732371454314663e-01,1.589060117058940236e-01,1.598211892950718305e-01,1.604454014378656479e-01,1.607612880780068254e-01,1.607387550780230989e-01,1.602955909886513153e-01,1.595506442023391092e-01,1.586335078985809666e-01,1.573052570141385831e-01,1.557681515587799326e-01,1.540310841759977567e-01,1.521399983515151488e-01,1.500442838740223273e-01,1.478803857415462719e-01,1.456512062248969397e-01,1.433021806489753747e-01,1.409903680708749774e-01,1.385869940451510129e-01,1.362803340535240770e-01,1.339093970212365536e-01,1.315290046320858330e-01,1.291764571958382013e-01,1.267949019490394458e-01,1.244208351752472130e-01,1.220644358795481277e-01,1.197043994358628766e-01,1.173804456741441987e-01,1.150160260511562671e-01,1.126674344488553525e-01,1.103146480347408087e-01,1.079630959987543937e-01,1.055905064690259437e-01,1.032266871947778164e-01,1.008183771482728947e-01,9.840734049120694604e-02,9.596693944291832812e-02,9.350607495943763503e-02,9.099030626551245227e-02,8.843779973351897916e-02,8.585064594737534804e-02,8.322060780367647459e-02,8.051188537415834845e-02,7.768370100196492212e-02,7.479652417975234113e-02,7.176189589537250446e-02,6.855310515179287301e-02,6.511773658416682153e-02,6.141541437665840042e-02,5.727407448988879046e-02,5.250386400973455769e-02,4.633259357409208468e-02,3.676398524508248805e-02,2.213423867774023945e-02,nan
nan,2.602638428792880543e-02,3.985687817792808035e-02,4.809735420685935792e-02,5.364596664615059463e-02,5.832337900613512871e-02,6.233068094080099208e-02,6.601562604154680158e-02,6.938108077943642982e-02,7.253959451421661264e-02,7.557567825697045216e-02,7.845238334806994840e-02,8.125069673829125871e-02,8.394073831386279771e-02,8.656247087930081519e-02,8.911202944851143171e-02,9.157850774610083733e-02,9.402641742592481033e-02,9.642325429640541401e-02,9.877233830269974146e-02,1.011263577326997759e-01,1.034497428365427074e-01,1.057597196803076317e-01,1.080485078902424789e-01,1.103329632053279274e-01,1.126035785006739565e-01,1.148798369593562463e-01,1.171308552164351258e-01,1.194017335522112033e-01,1.216598781998315393e-01,1.238930072185949471e-01,1.261489690492455518e-01,1.283564611602517336e-01,1.306549811257589067e-01,1.328887635480964224e-01,1.351418975853828641e-01,1.373515676061737856e-01,1.394968023536082846e-01,1.417246028473222452e-01,1.437758884239165869e-01,1.457928252541326741e-01,1.477035732903338727e-01,1.495155180558216668e-01,1.512354867242805267e-01,1.527087415498721290e-01,1.539884474897260380e-01,1.549793332704563209e-01,1.557805456835031355e-01,1.563139234149011347e-01,1.565722366563085943e-01,1.565615029604288666e-01,1.562882204528680541e-01,1.555967243471725603e-01,1.547068686662190218e-01,1.536161599871985473e-01,1.522014297807146588e-01,1.506593341744418002e-01,1.489306067439018499e-01,1.470845584470544809e-01,1.450741838937402994e-01,1.430751716879446744e-01,1.409286642187969341e-01,1.387563147562101695e-01,1.365483792453008327e-01,1.342964462412175319e-01,1.320351727015977861e-01,1.297877227845773140e-01,1.275057071447761037e-01,1.252502875545825067e-01,1.229520652220057741e-01,1.206925366634988284e-01,1.184086433645320513e-01,1.161095761463196985e-01,1.138247415928350936e-01,1.115352807884107539e-01,1.092229312820111736e-01,1.069024966570802232e-01,1.045897952615511273e-01,1.022229408803100453e-01,9.986787456325464662e-02,9.748418393986420238e-02,9.505479917636014409e-02,9.260743722185765803e-02,9.012489426142128446e-02,8.759356831326982340e-02,8.501779411576602941e-02,8.236850283894178726e-02,7.966903430060982838e-02,7.683795546660311671e-02,7.392365653196773800e-02,7.089809289232647249e-02,6.768527830965496983e-02,6.420092905508267833e-02,6.049725218580959130e-02,5.618894334476994684e-02,5.132922939234775550e-02,4.484777211476703718e-02,3.509459125038973115e-02,2.034745817705543858e-02,nan
nan,2.424563392724494310e-02,3.952378184220746438e-02,4.679732109457843126e-02,5.255895553345511784e-02,5.732096244092635406e-02,6.135364925731973812e-02,6.506343155274016410e-02,6.842733135416173562e-02,7.163554283045120430e-02,7.461910506609074900e-02,7.753758679555379507e-02,8.032158289178789601e-02,8.300490219713106688e-02,8.560286290921495511e-02,8.814807813636474365e-02,9.061212968197564221e-02,9.303140379551286254e-02,9.539928213886436636e-02,9.776340440583616842e-02,1.000869474563974709e-01,1.023772497647761071e-01,1.046489901324000882e-01,1.069173599104764893e-01,1.091557100101515493e-01,1.113875025425583309e-01,1.135831179099171251e-01,1.157988417237548473e-01,1.179908702715394830e-01,1.201764849594126466e-01,1.223295239719206923e-01,1.245198820115789445e-01,1.266619589613656727e-01,1.288046928729207619e-01,1.309393425170206071e-01,1.330654098574597655e-01,1.351559921809964981e-01,1.372000964950932655e-01,1.392137133333461452e-01,1.411567105089261420e-01,1.430297371758195435e-01,1.447863386541820008e-01,1.464263630256056048e-01,1.479294718165911626e-01,1.493283846245265500e-01,1.504176510991796500e-01,1.512934686914124693e-01,1.520536859693714105e-01,1.525350743470641479e-01,1.527140084426517608e-01,1.527137139228012253e-01,1.524091717811673075e-01,1.517729360944626016e-01,1.510794560575355328e-01,1.500398575830282355e-01,1.487390522140095150e-01,1.474042111707887237e-01,1.457784470950563849e-01,1.441767432634248336e-01,1.423525927539984193e-01,1.404644575723324740e-01,1.384813343588578993e-01,1.364917873759042000e-01,1.344121395236937688e-01,1.322785056686083538e-01,1.301794731283432427e-01,1.279992030834742889e-01,1.258227611268228074e-01,1.236081875657321777e-01,1.214397708208528326e-01,1.192312652808532741e-01,1.170153023465848457e-01,1.147964173859124110e-01,1.125461129864761961e-01,1.103201216168858551e-01,1.080701086770810143e-01,1.057952177076477152e-01,1.034920423394253691e-01,1.011951089671524612e-01,9.883278155110117313e-02,9.648849829195141337e-02,9.406912299432990121e-02,9.165039474587557966e-02,8.915759471609675801e-02,8.667484061048719157e-02,8.413202991997982549e-02,8.149489289427988559e-02,7.876189089593609027e-02,7.595370602760802281e-02,7.303476269548148103e-02,6.997656148994484127e-02,6.673654954476684886e-02,6.328829376845071519e-02,5.958880559534360938e-02,5.520551427044145809e-02,5.022626523449993940e-02,4.378695494426949886e-02,3.479868329252448766e-02,2.049445076288470766e-02,nan
nan,2.413866728029314193e-02,3.708177621332867796e-02,4.550899207894097687e-02,5.143977358441181869e-02,5.622695607039405324e-02,6.027964000849909271e-02,6.402488910442903636e-02,6.740902572541498938e-02,7.060614685693328285e-02,7.361309112937067245e-02,7.653017920508299599e-02,7.932266810471938490e-02,8.198517003544360249e-02,8.458680990061046012e-02,8.710014541391178367e-02,8.957354258293964699e-02,9.197276619606073456e-02,9.434840604555085053e-02,9.667885406103668422e-02,9.897183686488794652e-02,1.012349789517923287e-01,1.034862475624544892e-01,1.056850040270005398e-01,1.078871919718234346e-01,1.100910844689693135e-01,1.122495324736645095e-01,1.143948994473141106e-01,1.165212010336732912e-01,1.186403264565190907e-01,1.207488866014390372e-01,1.228419264072546091e-01,1.249110305647450903e-01,1.269663398166542834e-01,1.289976714979187700e-01,1.310045572126372626e-01,1.329823738883700313e-01,1.348796421341074692e-01,1.367558537411936448e-01,1.385711697042472101e-01,1.402730600192480526e-01,1.418703392480466785e-01,1.434123430957938705e-01,1.447455963944355162e-01,1.459881658639971547e-01,1.470232156505764110e-01,1.478645182098971278e-01,1.484703976831847072e-01,1.488605161849470560e-01,1.491116016666883537e-01,1.490216124171348522e-01,1.487768595111677028e-01,1.482706256190405303e-01,1.475608281918531217e-01,1.466422858193659473e-01,1.455904584652104594e-01,1.442527321807872964e-01,1.428570630084339821e-01,1.413899239988326006e-01,1.396674933264641927e-01,1.379342661062681330e-01,1.360631005965051432e-01,1.341936149316677596e-01,1.322342516013229330e-01,1.302671335921078699e-01,1.282409199044126646e-01,1.261819957346351773e-01,1.240909034815687734e-01,1.219817252991929335e-01,1.198675378460537372e-01,1.177302496195345993e-01,1.155746793190381844e-01,1.134298037971835371e-01,1.112464504943757038e-01,1.090436268504547113e-01,1.068305156199954170e-01,1.046018989403747768e-01,1.023403949682635816e-01,1.000607343412092537e-01,9.774098723513120757e-02,9.541798331809282774e-02,9.302850178541434423e-02,9.062818465345667818e-02,8.818043706891111333e-02,8.569082644715864117e-02,8.314351109497744585e-02,8.050114763033591747e-02,7.777919130536495307e-02,7.497016955344776301e-02,7.202711127655640755e-02,6.897554648766353325e-02,6.566144596449058346e-02,6.222092479546896537e-02,5.844434389967914645e-02,5.411411392386018121e-02,4.905882239087100416e-02,4.247981080686363126e-02,3.341590668573470729e-02,1.993395514675065650e-02,nan
nan,2.105938654767629953e-02,3.501212763649849680e-02,4.362343997123015876e-02,5.019198278161840499e-02,5.505796138441312187e-02,5.919939339338767259e-02,6.294644382314878994e-02,6.630706550723362847e-02,6.953170389132576346e-02,7.254846654260896366e-02,7.544202766258754911e-02,7.821967961572487416e-02,8.091816396484129148e-02,8.350923602053902939e-02,8.602017217268746740e-02,8.846762755666759404e-02,9.084988301680572975e-02,9.321457279397545037e-02,9.552825457554400823e-02,9.778272682476020494e-02,1.000295773807190064e-01,1.022264396724493624e-01,1.044128806313606161e-01,1.065836136821580182e-01,1.087208014898691094e-01,1.108298695898494168e-01,1.129172667449896000e-01,1.150045393498700247e-01,1.170621761015811363e-01,1.191076783315162951e-01,1.211217265358337514e-01,1.231014042758265120e-01,1.250445847251259734e-01,1.270043522739643382e-01,1.288627460261050628e-01,1.307484903198550819e-01,1.325591209349534227e-01,1.343128334976679827e-01,1.359951262469309141e-01,1.376064489526070966e-01,1.390678668768335902e-01,1.404245799873659051e-01,1.416744320237429133e-01,1.428116817371896108e-01,1.437037798817781820e-01,1.444771923396709068e-01,1.451016854515712606e-01,1.454382496341423137e-01,1.456017088016820504e-01,1.455539988859363143e-01,1.453630695541451578e-01,1.448800600561148677e-01,1.442679023185629017e-01,1.434422091843365610e-01,1.424022184588999151e-01,1.412268317833380304e-01,1.399636606892629698e-01,1.385539950182813895e-01,1.370216854628497072e-01,1.353618723010066582e-01,1.336728953654881535e-01,1.319016764706558709e-01,1.300648977506164150e-01,1.281958753966805642e-01,1.262374879259225424e-01,1.242881759847922762e-01,1.222630443777803083e-01,1.202724982800210118e-01,1.182252276638133398e-01,1.161621864043588387e-01,1.140727288706212122e-01,1.119716144239290556e-01,1.098545942123016900e-01,1.077141662630863722e-01,1.055329257666442755e-01,1.033472048422111739e-01,1.011118742816053961e-01,9.885503364535164206e-02,9.660216319311862310e-02,9.428173173636961168e-02,9.193582336458147597e-02,8.954470936674240045e-02,8.710269866472801492e-02,8.462099262033070945e-02,8.211067230562001107e-02,7.946978254835246336e-02,7.672753991914127436e-02,7.391349449994033538e-02,7.097126326960076503e-02,6.784365931717444009e-02,6.457339556656552237e-02,6.101125325390249071e-02,5.723501625516114882e-02,5.284600748047010854e-02,4.776202747755125405e-02,4.070421939481103785e-02,3.118175479415453283e-02,1.791599711483212592e-02,nan
nan,1.853752829760445253e-02,3.232835703893829210e-02,4.170764982073720678e-02,4.873904171733602075e-02,5.376522829032567841e-02,5.794484111509659585e-02,6.168017527851103743e-02,6.512813165897676781e-02,6.833626514500878990e-02,7.138304954533833402e-02,7.429119363143163457e-02,7.708982686416200603e-02,7.974917923713296941e-02,8.235376735922260438e-02,8.485869715435837013e-02,8.729788600069664228e-02,8.966394488422083087e-02,9.200875944276731833e-02,9.431393459229449328e-02,9.655725691104292963e-02,9.875584656496189107e-02,1.009240846516141488e-01,1.030675684052067415e-01,1.051807649680772394e-01,1.072901618223446457e-01,1.093603011735948677e-01,1.113956272489096677e-01,1.134244725868326364e-01,1.154089128719574253e-01,1.173906041137962597e-01,1.193351148486500729e-01,1.212420310831393983e-01,1.231259968192382065e-01,1.249797700040313070e-01,1.267618796133561654e-01,1.285190557636929909e-01,1.302218658414782126e-01,1.318793813237204293e-01,1.334378932022886877e-01,1.349094989502918340e-01,1.363323720719155641e-01,1.375490686743405244e-01,1.387125494894937972e-01,1.396786650065282298e-01,1.405251394277706456e-01,1.412567321875177195e-01,1.417867432357823032e-01,1.421163127156819805e-01,1.422880660876180148e-01,1.422489236705682947e-01,1.420421486158660596e-01,1.416271762817569169e-01,1.410534522458027906e-01,1.402958198841832149e-01,1.394026537938796717e-01,1.383179619298801344e-01,1.371331862740111374e-01,1.358431469114555201e-01,1.343953323433416946e-01,1.328824754827959698e-01,1.312626375037845572e-01,1.296203003035910351e-01,1.278822657506716309e-01,1.260870729939804202e-01,1.242549536821697803e-01,1.223348310772793823e-01,1.204706741138123899e-01,1.185310354899883761e-01,1.165398474573338811e-01,1.145545984708738196e-01,1.125186013765994142e-01,1.104774210085718855e-01,1.083914392830504086e-01,1.062888828488817716e-01,1.041871371352094400e-01,1.020245961410833069e-01,9.984082577413515291e-02,9.762079034796959653e-02,9.536808703765631279e-02,9.308511378011280479e-02,9.074086040006680565e-02,8.835323543815479241e-02,8.594935370073567005e-02,8.352493406102998175e-02,8.097082182173462317e-02,7.833185162869180096e-02,7.560641391093431141e-02,7.276095403668803030e-02,6.982152100319874433e-02,6.669608588352923806e-02,6.332316930841244695e-02,5.976243414239060248e-02,5.584865472460488062e-02,5.149986853667728320e-02,4.585711607056732614e-02,3.917439703836567144e-02,2.798314549335261664e-02,1.671021518985608273e-02,nan
nan,1.758045238000429875e-02,2.929094646052573386e-02,4.020490318080087444e-02,4.703023362441906274e-02,5.224803612466974445e-02,5.649745518560343738e-02,6.037130759327485885e-02,6.383392513011529323e-02,6.706949930008268557e-02,7.017081120316626119e-02,7.307854234796333504e-02,7.583664741977402812e-02,7.853775890701827911e-02,8.111775196628984164e-02,8.363173290984123043e-02,8.606073625060502164e-02,8.842626225965059816e-02,9.074651457265210663e-02,9.302247682442893462e-02,9.524636059786485698e-02,9.743150340624481820e-02,9.957195427542793464e-02,1.016808570505192549e-01,1.037665775861178058e-01,1.058214444199798987e-01,1.078429060028923692e-01,1.098449280080777135e-01,1.118095620056995532e-01,1.137518231094742649e-01,1.156517903641493678e-01,1.175195378894528103e-01,1.193532618474044960e-01,1.211743406093893222e-01,1.229234694237221620e-01,1.246359775673480663e-01,1.263137798669401179e-01,1.279379654104519370e-01,1.294637912593256390e-01,1.309204642694673792e-01,1.323032538760399168e-01,1.335954190364950223e-01,1.347505655080069031e-01,1.357960164966245387e-01,1.367207831865505929e-01,1.375261331925174413e-01,1.381528798490784804e-01,1.385928619764834058e-01,1.389525530287649968e-01,1.390580141730184127e-01,1.390418778901839625e-01,1.388359311260962126e-01,1.384566006313207864e-01,1.379381628384720448e-01,1.372674262315143889e-01,1.364229257080118163e-01,1.354548287726258793e-01,1.343646649980068386e-01,1.331307409585912871e-01,1.318326146951844802e-01,1.303851834095649531e-01,1.289158900200400026e-01,1.273323801187551951e-01,1.256931990024214296e-01,1.239866614196244443e-01,1.222372634135243802e-01,1.204408566193924113e-01,1.186188944279697316e-01,1.167249830001115402e-01,1.148278700623149157e-01,1.128854775938103183e-01,1.109241282699825609e-01,1.089318773223851844e-01,1.068916553588230844e-01,1.048610123103779629e-01,1.027675154969257543e-01,1.006438907360945878e-01,9.849871762444017964e-02,9.631005022480476629e-02,9.409719551621782696e-02,9.183046385063182993e-02,8.950170636593193785e-02,8.714816221074829505e-02,8.474161930468668280e-02,8.228124035345725507e-02,7.974612786793168484e-02,7.711369011282083463e-02,7.437991985973851916e-02,7.155149313532604971e-02,6.856778498425467050e-02,6.540781601368132747e-02,6.201744558597138690e-02,5.837339931391483105e-02,5.447658174610726239e-02,5.005553614921815636e-02,4.462738902595166091e-02,3.729282175541667743e-02,2.687579463232204341e-02,1.606861721631052189e-02,nan
nan,1.659199491231964918e-02,2.814351799366335977e-02,3.764882170416478102e-02,4.549392703723481590e-02,5.059801196218746688e-02,5.507067884137427372e-02,5.887982896089747481e-02,6.245462061861618841e-02,6.574019019577991008e-02,6.884194414763517011e-02,7.176607592581547845e-02,7.454275107808568113e-02,7.723056389200042005e-02,7.981185454335527896e-02,8.231876373455951357e-02,8.474575912562207214e-02,8.710231229075113268e-02,8.942107817952216209e-02,9.167827782948564930e-02,9.387579482840856249e-02,9.603860625774403303e-02,9.814283528142730972e-02,1.002300350178618182e-01,1.022704699040169196e-01,1.042903131126507732e-01,1.062802198129709358e-01,1.082246633073364467e-01,1.101484298131671091e-01,1.120271983142032690e-01,1.138623197599344106e-01,1.156797721874535945e-01,1.174460922642850957e-01,1.191842923165120083e-01,1.208760513476722642e-01,1.225243761970018636e-01,1.240798733039043811e-01,1.256100308796511966e-01,1.270519287042893852e-01,1.284390903946126539e-01,1.297341156833157483e-01,1.309091329287065397e-01,1.320204014364653733e-01,1.329916324243974601e-01,1.338614581839029927e-01,1.345821856222779722e-01,1.351867526808768760e-01,1.355831979750572736e-01,1.358914502586251183e-01,1.359843653133761265e-01,1.359841480245853329e-01,1.357933136564767607e-01,1.354713422244700760e-01,1.349791834313211480e-01,1.343367896932984584e-01,1.335446582027985662e-01,1.326812599277698290e-01,1.316389797694865471e-01,1.304888594050901407e-01,1.292655198885307999e-01,1.279310698914865319e-01,1.265407680814820413e-01,1.250623795169977237e-01,1.234863423074915312e-01,1.218616283213932172e-01,1.201946321336820334e-01,1.184644195400055000e-01,1.167215194149111845e-01,1.149091617808631755e-01,1.130663862841326806e-01,1.111838361953092769e-01,1.092820540325130652e-01,1.073405882771803488e-01,1.053558949092531366e-01,1.033646999477312867e-01,1.012976780724073461e-01,9.922001234200027164e-02,9.709690259913786314e-02,9.494299500170765016e-02,9.275786744106193082e-02,9.048526284703893585e-02,8.821022366057870712e-02,8.585573368684534801e-02,8.346248261628151643e-02,8.100210094264823080e-02,7.845958712382455902e-02,7.584553049143109849e-02,7.310048424814823143e-02,7.020257004508860532e-02,6.720698816203633796e-02,6.398709751215600483e-02,6.053969136004098278e-02,5.672338606108275061e-02,5.277875080891390736e-02,4.846164616090323229e-02,4.301832002252485576e-02,3.537675185267349226e-02,2.491815326357195090e-02,1.463056066101611763e-02,nan
nan,1.549366855784286776e-02,2.647460666901987197e-02,3.626916575692783196e-02,4.364165440183832845e-02,4.888395460710685814e-02,5.337422693233329074e-02,5.735863730914843306e-02,6.097428594886818848e-02,6.427163667472690634e-02,6.741368581835965879e-02,7.036565954608756113e-02,7.315717162218884906e-02,7.587153389808469484e-02,7.845558771114409524e-02,8.094978907456885919e-02,8.336978280323149859e-02,8.573097594741724281e-02,8.802168563394206779e-02,9.026750009849254797e-02,9.245567058177028841e-02,9.457589608985031426e-02,9.668273719039006953e-02,9.872314895110320676e-02,1.007389637108983965e-01,1.027144667530294764e-01,1.046641277570573708e-01,1.065481315537759321e-01,1.084285809207887197e-01,1.102475284497603514e-01,1.120482114469068258e-01,1.137976749464094522e-01,1.155163562798198068e-01,1.171834787630905428e-01,1.187871430367579140e-01,1.203596190784678166e-01,1.218611516437949349e-01,1.233281345211857671e-01,1.246737436113115882e-01,1.259938035227621822e-01,1.271855843893326121e-01,1.283113418109035897e-01,1.293242628806476890e-01,1.302526802459483546e-01,1.310426319527228656e-01,1.317306510449484103e-01,1.322497772992586307e-01,1.326596159426364496e-01,1.328984206606114715e-01,1.330470756250117792e-01,1.330057978711795541e-01,1.328127836209836155e-01,1.325466201123081944e-01,1.321030049928724193e-01,1.314686070766111492e-01,1.307478743192269921e-01,1.299181950746572389e-01,1.289711433673126351e-01,1.279220674616536602e-01,1.267634275607316674e-01,1.255230599016494974e-01,1.241869679967183560e-01,1.227682627581215269e-01,1.212869580802765634e-01,1.197398141052813808e-01,1.181467223635598862e-01,1.164816685186248479e-01,1.147860740093881726e-01,1.130541710587482651e-01,1.112761268176420959e-01,1.094578397270948855e-01,1.075895661103129508e-01,1.056973800661807211e-01,1.037691476140700092e-01,1.017868375340792997e-01,9.977184997449804749e-02,9.773334127481314582e-02,9.563796757038964258e-02,9.350077028617477526e-02,9.133573241412390464e-02,8.909270964345376853e-02,8.684270244230708757e-02,8.451074380104185713e-02,8.212183629021882481e-02,7.965770824619011758e-02,7.711550090614183173e-02,7.447424040032228632e-02,7.171790644910691626e-02,6.884734040538796618e-02,6.578270418193740698e-02,6.252587439082082921e-02,5.900453497642525053e-02,5.505441966378560315e-02,5.083049924332127406e-02,4.627692526034309084e-02,4.087042756856772152e-02,3.333003734848479643e-02,2.265330493706053938e-02,1.205224715353111348e-02,nan
nan,1.369370657057549304e-02,2.477979875456517295e-02,3.417371447282938762e-02,4.145233967710428014e-02,4.720731509645988144e-02,5.173194585151887070e-02,5.570797799600685218e-02,5.932881546974191206e-02,6.274500377298231069e-02,6.589471689469188209e-02,6.885590304520761151e-02,7.170168561075103419e-02,7.442414559973280219e-02,7.701006148768399506e-02,7.951162917101399497e-02,8.193178827066424641e-02,8.428248499185074516e-02,8.655112363745523507e-02,8.878597611781843812e-02,9.096047404160320649e-02,9.307684032153004661e-02,9.514055585061124976e-02,9.717315028711395741e-02,9.916086941244234287e-02,1.010908772382689697e-01,1.029902130400231763e-01,1.048572303290686847e-01,1.066654904713427165e-01,1.084654605759109020e-01,1.102155453068471153e-01,1.119015628461946799e-01,1.135548930356196362e-01,1.151507751095541821e-01,1.167035307957053764e-01,1.182171685090071256e-01,1.196465678443464770e-01,1.209870061497363147e-01,1.223209293267104314e-01,1.235100923375935245e-01,1.246847805992129798e-01,1.257352412830803901e-01,1.266994207639253744e-01,1.275723482565213340e-01,1.282719575769849518e-01,1.289169479471394264e-01,1.294185081457198128e-01,1.297968167708681286e-01,1.300311308839446067e-01,1.301260020769801073e-01,1.301102400497535783e-01,1.299601211311602333e-01,1.296885645354549643e-01,1.292656087899755057e-01,1.286931988427510998e-01,1.280215102129415305e-01,1.272655537820337746e-01,1.263439804042107428e-01,1.253693297068316226e-01,1.242813028370336192e-01,1.230893328785027802e-01,1.218031999380767283e-01,1.204930099592258774e-01,1.190781886994390359e-01,1.176024887293597165e-01,1.160879617650131673e-01,1.144957502452776388e-01,1.128735412240257363e-01,1.111656456644583013e-01,1.094328502038422468e-01,1.076731418187135136e-01,1.058517429151472206e-01,1.040038558652890133e-01,1.021072060642043561e-01,1.001697480596044632e-01,9.820949684976172656e-02,9.619214175390203292e-02,9.412235273596858409e-02,9.201630470242147530e-02,8.986256816269824754e-02,8.765469449971148574e-02,8.539189785637457675e-02,8.308894628496762969e-02,8.068188437843273886e-02,7.824539130549111599e-02,7.569503117072835796e-02,7.304862389700052250e-02,7.026964574185108614e-02,6.737090013589717985e-02,6.426760213570223423e-02,6.099686495142350728e-02,5.735833464813232946e-02,5.354955552924667295e-02,4.946045418823735718e-02,4.442857274970021808e-02,3.889254643831829839e-02,3.087571184126692084e-02,2.122944463191515224e-02,1.184874141987803109e-02,nan
nan,1.272256321066210852e-02,2.249250194441857267e-02,3.173177883864063825e-02,3.938593173791504753e-02,4.516204859685144651e-02,4.982887280239707561e-02,5.390295952772908294e-02,5.760013653346056361e-02,6.109244470165031693e-02,6.427700674218844723e-02,6.727208017663828532e-02,7.015148881453703300e-02,7.285801173057912528e-02,7.547571854466815500e-02,7.798442830906593404e-02,8.041012326586940984e-02,8.277299816325769943e-02,8.505712354760268379e-02,8.725382597745501290e-02,8.940580242753613793e-02,9.151488985244546348e-02,9.355253264393655066e-02,9.555259973301015453e-02,9.751470503673247137e-02,9.941674744985126710e-02,1.012911701638406631e-01,1.031116735937355755e-01,1.048915963295644765e-01,1.066266179811355408e-01,1.083139463259002178e-01,1.099468313689929283e-01,1.115666330887880586e-01,1.131274996472025063e-01,1.146121344365333555e-01,1.160538541963481579e-01,1.174532758616226025e-01,1.187470945382224502e-01,1.199729488099275654e-01,1.211260322690728836e-01,1.222253396540999848e-01,1.232115104427453367e-01,1.240916912756885593e-01,1.248973297463442655e-01,1.256085425791938215e-01,1.261955762894560462e-01,1.266432269317637749e-01,1.270084613567221410e-01,1.272231826346269523e-01,1.273171753885981305e-01,1.273017297844464824e-01,1.271332465063399197e-01,1.269028202935153227e-01,1.264941672893090951e-01,1.259837511889084771e-01,1.253444258144428280e-01,1.246142102861886314e-01,1.237755139037245156e-01,1.228388719042960570e-01,1.218247128095013010e-01,1.206814664180801411e-01,1.194729186893673106e-01,1.182168858276450019e-01,1.168665469305198851e-01,1.154504648639989028e-01,1.139920437497072003e-01,1.124713464986533407e-01,1.109008272826531027e-01,1.092630127563826159e-01,1.075611123417451187e-01,1.058435242401289528e-01,1.040813574980202355e-01,1.022553539055403582e-01,1.004021490041692305e-01,9.852685505464602034e-02,9.657998409838305931e-02,9.457724003937401092e-02,9.255310310314111832e-02,9.046106733302050618e-02,8.832629635706154558e-02,8.614903810924752492e-02,8.392008756249248747e-02,8.158966223937638707e-02,7.920342683601494516e-02,7.672568544075401842e-02,7.420308643744881472e-02,7.150975146364102475e-02,6.871111003357242841e-02,6.577084427522209009e-02,6.265880321049541180e-02,5.932788288617807382e-02,5.566701016704377059e-02,5.191291819651465411e-02,4.762570379088353067e-02,4.288925819913460419e-02,3.680986535448218383e-02,2.840084751750677344e-02,1.895057786590157237e-02,1.062893871042258284e-02,nan
nan,1.113622492610020359e-02,1.941257791100643726e-02,2.946500557477259655e-02,3.690440831401281541e-02,4.282550553538569393e-02,4.774831807136678541e-02,5.195685093302902791e-02,5.579640043885103484e-02,5.928358088731484898e-02,6.254114057537046856e-02,6.559798075850460652e-02,6.846789520027633802e-02,7.124095084602849459e-02,7.387719166456020725e-02,7.638076319374806356e-02,7.883852891879562785e-02,8.118502114247756751e-02,8.344891920716707157e-02,8.565267565418040185e-02,8.780242758627798683e-02,8.987524244356678849e-02,9.190177707059246637e-02,9.388099261291968367e-02,9.582099316491944629e-02,9.769856651600607178e-02,9.952670908705321673e-02,1.013277962355747241e-01,1.030622578101411668e-01,1.047590216014271658e-01,1.063945116104940136e-01,1.079932739255969887e-01,1.095562358551503968e-01,1.110578370577950669e-01,1.125061896351224194e-01,1.138755614452214016e-01,1.152403707341767558e-01,1.164506696366265776e-01,1.176083459052607305e-01,1.187208894008886795e-01,1.197697906456370032e-01,1.206954351889786836e-01,1.215310864043674111e-01,1.222981005983738018e-01,1.229673748529429428e-01,1.235156866705109657e-01,1.239426238825831750e-01,1.242707833545681068e-01,1.244735344458185872e-01,1.245943678670846377e-01,1.245789825562959585e-01,1.244185292682014610e-01,1.241635367770009685e-01,1.237759169201634452e-01,1.233243183715511671e-01,1.227293168709927274e-01,1.220427171864664762e-01,1.212347946464386178e-01,1.203475408390251439e-01,1.193814565627614593e-01,1.183015645060603999e-01,1.171507548334046883e-01,1.159438248191743404e-01,1.146526587760004628e-01,1.133219134405554496e-01,1.118870855615567012e-01,1.104134648732267854e-01,1.089063599847113067e-01,1.073137709473410972e-01,1.056695147128774437e-01,1.040047681765436105e-01,1.022633672605633426e-01,1.004816249142795326e-01,9.867068556854682870e-02,9.682258026803483575e-02,9.488216707904471858e-02,9.293400837669982262e-02,9.092377100678125657e-02,8.884355027159535068e-02,8.671879753142275327e-02,8.459867841474616457e-02,8.234850592752851473e-02,8.004483197902978464e-02,7.763704974254759250e-02,7.516085742866523978e-02,7.257287431529095556e-02,6.991167859722921540e-02,6.707978168458601786e-02,6.407843267523176400e-02,6.094184119513012393e-02,5.753993523034441060e-02,5.393587962154239301e-02,4.995444509796768962e-02,4.553465086072094881e-02,4.050721651977243210e-02,3.417734532722176144e-02,2.570863048848251106e-02,1.655050627197145879e-02,9.691460284364995792e-03,nan
nan,9.368256163759174776e-03,1.686034556948271326e-02,2.600468941826898639e-02,3.386793741166577165e-02,4.024729216378872265e-02,4.531511094986204885e-02,4.974909545256020471e-02,5.376689517250377720e-02,5.733752457285554160e-02,6.071675745714054384e-02,6.376479198513426705e-02,6.673573721199760334e-02,6.951206119113914617e-02,7.217612344434970462e-02,7.472657978319996452e-02,7.715070384549455040e-02,7.951576081305807009e-02,8.179403695420683906e-02,8.399649483826021612e-02,8.611936847573395393e-02,8.819600341092603824e-02,9.020145375773683249e-02,9.214922343536863236e-02,9.407118736378625168e-02,9.592422454399583687e-02,9.772886596656307767e-02,9.948056199708774083e-02,1.011756139628685325e-01,1.028540704339250544e-01,1.044599013010608646e-01,1.060070875941314661e-01,1.075249171945266147e-01,1.089701455863542473e-01,1.103631945657732039e-01,1.116886831713053696e-01,1.129579305625934282e-01,1.141561435934772689e-01,1.152886486910938424e-01,1.163667351477598866e-01,1.173235311265316272e-01,1.182235694679366900e-01,1.190386745801460811e-01,1.197412535385075083e-01,1.203517390507647666e-01,1.208764640127223677e-01,1.212882317179798386e-01,1.215943325697282362e-01,1.218206177786509414e-01,1.219043794742465103e-01,1.218733366715165911e-01,1.217270967200112103e-01,1.214939580708639388e-01,1.211672328281949568e-01,1.207107137108405504e-01,1.201322954953724376e-01,1.194878369110137228e-01,1.187287912862940720e-01,1.178982718215041275e-01,1.169603085980694679e-01,1.159273673020451423e-01,1.148424969450406036e-01,1.136627655215981803e-01,1.124386834938284341e-01,1.111502837992493359e-01,1.097690983249190594e-01,1.083442626330948511e-01,1.068569856651939570e-01,1.053265113728957258e-01,1.037401115495648896e-01,1.020973611675261433e-01,1.004126317856244011e-01,9.867506652639879139e-02,9.688708200876057497e-02,9.505220723604293487e-02,9.316663096489329055e-02,9.122893045123270372e-02,8.923392197404228510e-02,8.717677007375967957e-02,8.507385893650451503e-02,8.297370810961762766e-02,8.069717359069238094e-02,7.839452625021609000e-02,7.601001005808785682e-02,7.348444020869744631e-02,7.092029367727817335e-02,6.817638189407980442e-02,6.533880880250188261e-02,6.229185232324036675e-02,5.911285600002668533e-02,5.565780838719447399e-02,5.195869844464384713e-02,4.791263692232576588e-02,4.322391638087687976e-02,3.759587706254672451e-02,3.089199430526816392e-02,2.225659373484707368e-02,1.337960105305056879e-02,8.137345731241082264e-03,nan
nan,7.732523091647083846e-03,1.430261662429434949e-02,2.194577523921156792e-02,3.044885545525223558e-02,3.723054534948876115e-02,4.281532365716070321e-02,4.749955503498422271e-02,5.159022715727543812e-02,5.531318225558613799e-02,5.871456680677528822e-02,6.188614263973279267e-02,6.488005865723871224e-02,6.770227499515193981e-02,7.039391273621763145e-02,7.295501226444103815e-02,7.541550044518197105e-02,7.778407027023620524e-02,8.004311330079350029e-02,8.225529299212630541e-02,8.439184816899635011e-02,8.644632653374605125e-02,8.844821551835814477e-02,9.038070728137674592e-02,9.226640241668961073e-02,9.409674735589063088e-02,9.588257090274902861e-02,9.760080801939184647e-02,9.928311647717326383e-02,1.008867760251117851e-01,1.024682544670356271e-01,1.039867847372189236e-01,1.054543788750926525e-01,1.068511121979744544e-01,1.082160261701454740e-01,1.095032416585440538e-01,1.107320647409232167e-01,1.118840272543658865e-01,1.129571109107077170e-01,1.139699635412932816e-01,1.149166116947555050e-01,1.157636560864763742e-01,1.165426221990661371e-01,1.172165522037559027e-01,1.177997461362222664e-01,1.182896018934427307e-01,1.186859843526064384e-01,1.189556051054519170e-01,1.191736165190535601e-01,1.192530820932714009e-01,1.192199296536346209e-01,1.191091870405947828e-01,1.188957531215855956e-01,1.185342435834872421e-01,1.181183816338591819e-01,1.175948484343707356e-01,1.169621105322743160e-01,1.162562020416866571e-01,1.154382252756585570e-01,1.145257643999739450e-01,1.135665462273875992e-01,1.125152484232261607e-01,1.114128329346811691e-01,1.102198203156994211e-01,1.089596948036262447e-01,1.076370470917209915e-01,1.062574950142264330e-01,1.048320182076093038e-01,1.033313859519321976e-01,1.017684435041357888e-01,1.001814329729258796e-01,9.851308416536663781e-02,9.681284329700715063e-02,9.504892535012940402e-02,9.324498175418660662e-02,9.137123314556441778e-02,8.945408567971792346e-02,8.749196755601593156e-02,8.543879445056723476e-02,8.337775339357389459e-02,8.125346911989086984e-02,7.902585865277840516e-02,7.668033172848266743e-02,7.425709313177153437e-02,7.177016860431538470e-02,6.913732989833684672e-02,6.638612257543027861e-02,6.347892685749931263e-02,6.042425352226192536e-02,5.707492544770597503e-02,5.353739646501876059e-02,4.957058532362385028e-02,4.535147446817891503e-02,4.052472055141943114e-02,3.451959195925244361e-02,2.732376731745628229e-02,1.846353821793664252e-02,1.062572758913385949e-02,6.850025973458837882e-03,nan
nan,6.406344841363154075e-03,1.119523704946451953e-02,1.749251140585715222e-02,2.609913062464414360e-02,3.394727967875864338e-02,4.001818324368861673e-02,4.485101207262771894e-02,4.913194063396982003e-02,5.306735103016373134e-02,5.658736183344439952e-02,5.988886313320900684e-02,6.292623435845169644e-02,6.576986573825738258e-02,6.851007667812561430e-02,7.110941538185203137e-02,7.357100563538378213e-02,7.597770338340451013e-02,7.826839517516531730e-02,8.045102537994353042e-02,8.258108852246862086e-02,8.464053611451148595e-02,8.661828909724121617e-02,8.854453961521134564e-02,9.040480137536438532e-02,9.223016837496175735e-02,9.397559014687988099e-02,9.568518199185999107e-02,9.732098982807710352e-02,9.892161939932597736e-02,1.004579775611613712e-01,1.019429346771046629e-01,1.033684355996812021e-01,1.047318804025557659e-01,1.060603487661366529e-01,1.072982827556110408e-01,1.084838004134317802e-01,1.095845327317289675e-01,1.106374463808595110e-01,1.116083372007976582e-01,1.125071496922188663e-01,1.133248228425956239e-01,1.140304725411523529e-01,1.147071490333521210e-01,1.152762007194305799e-01,1.157408027551700969e-01,1.161045371184785957e-01,1.163953355255740174e-01,1.165599375748334610e-01,1.166299604512655019e-01,1.166295845957266986e-01,1.165091890554991183e-01,1.162527616668705410e-01,1.159725422977826437e-01,1.155396345152645970e-01,1.150550126097967391e-01,1.144571866585188669e-01,1.137718702738138715e-01,1.129896714933171786e-01,1.121516595927926352e-01,1.111984480400100422e-01,1.102143294974275572e-01,1.091342473084291331e-01,1.079806952367890205e-01,1.067584569173660319e-01,1.054934385953011089e-01,1.041365613388106764e-01,1.027532590887699770e-01,1.012763746647184493e-01,9.977518147234686052e-02,9.821018539458167829e-02,9.659069328334893290e-02,9.490977677897721732e-02,9.317004508963765141e-02,9.139046049223092938e-02,8.954262234973701939e-02,8.763377937938779394e-02,8.566672530630192739e-02,8.365610884192858920e-02,8.158381019792740330e-02,7.944166347852146814e-02,7.720685586017811408e-02,7.487532457107422268e-02,7.245606611227663196e-02,6.991640709560678624e-02,6.726368803498339322e-02,6.440785891241615491e-02,6.152666277100460324e-02,5.838540507232706234e-02,5.488495232376577881e-02,5.135584759813887484e-02,4.725947398412944089e-02,4.273966089549913194e-02,3.750241393076765573e-02,3.116384227665400589e-02,2.343737472133375355e-02,1.496132904831334182e-02,9.035197900582497485e-03,5.830663187310299901e-03,nan
nan,5.406517767586504347e-03,8.816454512967353968e-03,1.410442892666339404e-02,2.172790794818627025e-02,3.000173130070752855e-02,3.668193748859653602e-02,4.184127696956542464e-02,4.662418631143271791e-02,5.064526558477303042e-02,5.428869079720143043e-02,5.774062777775800653e-02,6.083103812394809878e-02,6.373189919558427952e-02,6.651693839774616701e-02,6.914558928877995170e-02,7.166927479769878706e-02,7.405202000736280099e-02,7.637334837548356847e-02,7.856213714027954209e-02,8.070443814121019965e-02,8.274583226363493860e-02,8.473029651204902479e-02,8.665709173834162948e-02,8.850088522229376808e-02,9.030237978358314488e-02,9.203546376925030026e-02,9.370385948496710860e-02,9.533944837262600669e-02,9.690565109719820325e-02,9.839823727528791697e-02,9.985686392154120850e-02,1.012457782729399708e-01,1.025932889706112350e-01,1.038625225939330543e-01,1.050813633285378329e-01,1.062357356749605020e-01,1.073082883635884388e-01,1.082868611303978851e-01,1.092403083722634366e-01,1.101069741240477823e-01,1.108761013648088961e-01,1.115988965857202947e-01,1.122190516052319897e-01,1.127428957037153456e-01,1.131893428913014338e-01,1.135621324735146542e-01,1.138167667781493364e-01,1.139823748048619245e-01,1.140633492018884726e-01,1.140530061519625521e-01,1.139307958345472521e-01,1.137146933314240882e-01,1.134222534643133662e-01,1.130334458335441189e-01,1.125579605230754565e-01,1.119664187273097522e-01,1.113180375870390371e-01,1.105699842697915602e-01,1.097458830170179450e-01,1.088507670315482095e-01,1.078970897240813381e-01,1.068325962066211388e-01,1.057243834389877402e-01,1.045522478662468807e-01,1.033207779524502323e-01,1.020092456220998145e-01,1.006239637852039126e-01,9.920939232699016452e-02,9.772445646217944870e-02,9.620073651564310657e-02,9.459826666267004414e-02,9.295252411169382945e-02,9.125129636353679352e-02,8.949092280290074641e-02,8.764653603256480907e-02,8.575845129884468454e-02,8.380191610616624653e-02,8.179485725565552312e-02,7.969943173118562707e-02,7.757501080225284729e-02,7.533206117904159282e-02,7.298133326004276056e-02,7.051983795737079563e-02,6.799416035048767848e-02,6.527234112047121395e-02,6.243132214302149485e-02,5.938852875250689306e-02,5.614245152420594548e-02,5.264762373379970606e-02,4.875604280903377691e-02,4.450984344970927709e-02,3.959789155451368114e-02,3.362235402886270402e-02,2.716234697259556699e-02,1.842784764779373946e-02,1.176990907293479043e-02,7.470447300751533772e-03,4.839911078412881783e-03,nan
nan,4.291289059420597130e-03,7.376451461135561175e-03,1.106870988259865338e-02,1.777615647722719655e-02,2.585692259480596583e-02,3.264211151261797034e-02,3.858939117202754565e-02,4.352729168890623335e-02,4.802083809622702260e-02,5.186244933776615329e-02,5.540597054648302433e-02,5.862195302934475327e-02,6.161004332721098375e-02,6.437237949746951737e-02,6.709698355810814197e-02,6.966069398623911391e-02,7.208524078754934006e-02,7.438491050868717425e-02,7.663641484649133528e-02,7.875758413791272838e-02,8.080386757666474518e-02,8.278306512189262389e-02,8.469784242669078922e-02,8.654563553034740064e-02,8.832277156017698250e-02,9.002017865394992824e-02,9.168345540224127899e-02,9.328670967893828991e-02,9.484670191310057286e-02,9.631491456804511242e-02,9.774587018844732578e-02,9.911092701489984669e-02,1.004124743879299259e-01,1.016587889975778536e-01,1.028405135465941811e-01,1.039542324462326417e-01,1.050028108819655581e-01,1.059760051259392988e-01,1.068710502353719810e-01,1.076989085025805148e-01,1.084727499383287275e-01,1.091324226801579506e-01,1.097300081898828911e-01,1.102502665162567869e-01,1.106587967820880647e-01,1.110230199916082267e-01,1.112811151602057375e-01,1.114255935322903818e-01,1.115090600620398664e-01,1.114926157314641425e-01,1.113704208040419974e-01,1.111826586158440877e-01,1.109095186559998225e-01,1.105258933185823411e-01,1.100535518196331247e-01,1.094988412750415863e-01,1.088715392200530485e-01,1.081574412178059608e-01,1.073780378217171760e-01,1.065136397711313604e-01,1.055589519975672352e-01,1.045514299032395261e-01,1.034747307085795015e-01,1.023261915658279786e-01,1.011148394911290660e-01,9.982576122517311523e-02,9.849638159333651277e-02,9.710566502287638901e-02,9.566276226217146350e-02,9.413479975656752208e-02,9.259257558385389220e-02,9.095995204890172658e-02,8.927124422112407698e-02,8.751652369752496718e-02,8.570491219986597908e-02,8.380469577235022394e-02,8.187408126811453191e-02,7.984886827490728090e-02,7.779018763918489621e-02,7.561607617892075750e-02,7.335704258560012125e-02,7.098896438081343796e-02,6.852640820815115996e-02,6.592881132314636072e-02,6.319905125472680130e-02,6.022744024218128905e-02,5.715721488309233322e-02,5.379473270666205315e-02,5.011907361767676400e-02,4.613031148786464475e-02,4.141118670948094882e-02,3.619344917564107367e-02,2.994241595933291519e-02,2.200978746722143456e-02,1.365252120440722805e-02,8.486243308381080305e-03,5.564088814508691416e-03,3.501660733414107846e-03,nan
nan,3.846596513640796865e-03,6.024600685696452490e-03,8.800106655832199559e-03,1.292074848299418731e-02,2.058016373889855893e-02,2.826383419051716611e-02,3.501355760268826806e-02,4.039797367249578497e-02,4.506582262487041080e-02,4.929127068210649443e-02,5.289483362416813605e-02,5.626194627145700289e-02,5.933983443460149471e-02,6.217885016282184013e-02,6.490438835337228318e-02,6.751178745816507898e-02,6.998382638418003399e-02,7.233619382330969128e-02,7.459075011514453013e-02,7.673096845825194690e-02,7.878787462493849758e-02,8.076017320770201291e-02,8.267539954498254184e-02,8.451146331044651072e-02,8.629685412489057628e-02,8.798738293245537967e-02,8.961718097406923267e-02,9.121228700808559076e-02,9.272796616910580769e-02,9.419038673196265810e-02,9.559070330949892558e-02,9.692831561039755295e-02,9.821851761283850735e-02,9.941836177477733627e-02,1.005729204455544090e-01,1.016567323703608389e-01,1.026822138873569878e-01,1.036207237244814311e-01,1.045052988286459400e-01,1.053011890621414343e-01,1.060455075392796598e-01,1.067001520795257397e-01,1.072708761175139303e-01,1.077688290427473439e-01,1.081890708784995214e-01,1.085193865792754980e-01,1.087533949437454323e-01,1.088953321297265742e-01,1.089654606525623654e-01,1.089535623179385126e-01,1.088480919183244244e-01,1.086688289901696497e-01,1.083730594283136839e-01,1.080136742380097825e-01,1.075672213283597467e-01,1.070436808451169786e-01,1.064294178645657230e-01,1.057400266879283957e-01,1.049872766446678651e-01,1.041451666014665267e-01,1.032079286488228748e-01,1.022363905408800039e-01,1.011842131241377646e-01,1.000680862110205627e-01,9.887750552557506012e-02,9.762839183090646356e-02,9.631151971255594302e-02,9.496857705895224433e-02,9.353597479028842587e-02,9.205505557421626850e-02,9.051800533087342449e-02,8.889878199851844465e-02,8.721849656142391383e-02,8.549077048581325833e-02,8.367182105050860463e-02,8.180650089512905843e-02,7.986416697975196044e-02,7.785464635491053109e-02,7.577600359541158959e-02,7.359518490593613960e-02,7.130556184797952335e-02,6.892132694638841706e-02,6.638414320075572417e-02,6.376147156730900545e-02,6.098552270185442215e-02,5.795283511335394544e-02,5.475420093495211860e-02,5.112285672012718135e-02,4.735125289426496409e-02,4.296038474490005560e-02,3.798928899915134105e-02,3.154841742742493793e-02,2.457327382224365475e-02,1.664681120225310063e-02,1.119930902645643184e-02,6.679066362345784449e-03,3.964677591362311335e-03,2.408991236725142610e-03,nan
nan,2.887135970514263447e-03,4.787468604071603955e-03,6.676018685981464050e-03,9.998129289029027839e-03,1.538654776724854116e-02,2.332712970007785533e-02,3.065702361421964936e-02,3.673464508182844313e-02,4.193207692030868905e-02,4.622364264060023487e-02,5.014379915930371190e-02,5.367349694456090281e-02,5.684633195289801738e-02,5.986557257414512612e-02,6.265620138364197400e-02,6.528602515721641797e-02,6.781578084479804314e-02,7.019961704383351209e-02,7.243490459885573718e-02,7.462233555328993961e-02,7.667989254113463660e-02,7.867993618169275005e-02,8.058399917683739533e-02,8.240849342528561161e-02,8.419328823639318782e-02,8.588605824466687133e-02,8.750914909722029567e-02,8.907805718016509333e-02,9.058112456920872080e-02,9.202853665868428179e-02,9.338602141825688707e-02,9.472040533817403796e-02,9.596897051048026983e-02,9.714658663952749351e-02,9.829175671933323977e-02,9.934517691967409414e-02,1.003435316665575172e-01,1.012663397655804848e-01,1.021115430622389492e-01,1.029003789004129116e-01,1.036065422747419057e-01,1.042371437317658328e-01,1.047947374660826159e-01,1.052769087249248586e-01,1.056583556859107681e-01,1.059975799709752392e-01,1.062241660750181255e-01,1.063695623666599394e-01,1.064340452682316640e-01,1.064267811713793671e-01,1.063312842410377018e-01,1.061317792476195176e-01,1.058685192909321338e-01,1.055168068826743133e-01,1.050763559561902899e-01,1.045828914605407833e-01,1.039715054899670171e-01,1.033165758844825227e-01,1.025842690878044916e-01,1.017455916286517936e-01,1.008615720259261744e-01,9.991686557260304191e-02,9.888162774647756004e-02,9.777677529170919479e-02,9.665953792944895206e-02,9.541312815639112210e-02,9.410891355168329864e-02,9.279752474963486042e-02,9.139259173263901415e-02,8.992853267858830213e-02,8.839068464385702040e-02,8.679448161807218343e-02,8.514455192421029051e-02,8.340395847152062836e-02,8.161097500758335288e-02,7.973355671755828766e-02,7.782581507493335771e-02,7.578341102476363056e-02,7.369233197724243956e-02,7.148134704846600962e-02,6.914572855148803932e-02,6.673128378108393599e-02,6.417680919360559122e-02,6.142612931333374382e-02,5.853728441585959175e-02,5.546864277175127950e-02,5.196175305177842818e-02,4.835157479368529243e-02,4.410015387363985795e-02,3.938532101020264520e-02,3.384705696788417595e-02,2.715652321256267418e-02,1.973940219766257692e-02,1.289356305060382693e-02,8.809328831554472800e-03,5.910576569219925386e-03,3.620759247798604422e-03,1.623989246369805795e-03,nan
nan,1.976901352024124786e-03,3.566015005936493988e-03,5.439524270454283369e-03,8.001199831551531264e-03,1.172548232004825240e-02,1.812687922787990791e-02,2.542977799623600405e-02,3.250062659629803646e-02,3.811279798718716916e-02,4.279376024312595700e-02,4.699294543518170442e-02,5.085390314069845180e-02,5.408756073447682639e-02,5.738117709602651856e-02,6.022467265258299451e-02,6.294678037343298671e-02,6.551266583276907363e-02,6.793073157891704739e-02,7.024303934251555082e-02,7.240468786791448563e-02,7.452021533169184142e-02,7.651206996174642061e-02,7.839746267429811843e-02,8.026511959929602535e-02,8.201098559224902218e-02,8.371113982542395526e-02,8.534305727362381799e-02,8.688283526256196376e-02,8.838297613504020322e-02,8.981262739031783959e-02,9.115732575782997671e-02,9.245176387534931317e-02,9.369293827809260788e-02,9.487171865884685973e-02,9.596328467962431108e-02,9.700382435409132809e-02,9.798103812725778017e-02,9.887154478575667371e-02,9.970981067629106076e-02,1.004685683636895310e-01,1.011601208649600681e-01,1.017686017423357209e-01,1.023118046200909292e-01,1.027861286021388987e-01,1.031607566973193890e-01,1.034619814154838502e-01,1.036985946699351679e-01,1.038439936206296266e-01,1.039004634353635492e-01,1.038894457189292464e-01,1.037931680941269058e-01,1.036073941471464394e-01,1.033582264095070785e-01,1.030123104226903230e-01,1.025981962331274921e-01,1.020980959174272173e-01,1.015241815653944724e-01,1.008808782261080839e-01,1.001356212848788507e-01,9.936284988648544370e-02,9.850461066442016411e-02,9.755972768652285132e-02,9.654645458890045995e-02,9.546091065167555678e-02,9.436848826233043552e-02,9.334567317510152062e-02,9.190851468373729960e-02,9.061127277117883572e-02,8.920618461158290324e-02,8.775151102777367651e-02,8.622051464822294564e-02,8.464034354398593252e-02,8.297483283931841869e-02,8.126975587069847073e-02,7.946482803758000979e-02,7.759813703310680655e-02,7.565147784028396216e-02,7.363453689163687588e-02,7.148178729997747838e-02,6.922573001543219640e-02,6.689875990965392372e-02,6.434449813688446207e-02,6.178466304213804661e-02,5.896456273135544657e-02,5.591013510237969469e-02,5.271907185793603401e-02,4.915148988126475521e-02,4.499638470352825687e-02,4.054939061872821215e-02,3.518263770250449479e-02,2.899768782133618078e-02,2.192298275192365586e-02,1.504216792252672033e-02,1.055202602319887072e-02,7.426656194999364108e-03,4.948423856801198104e-03,2.640208699399883285e-03,1.005830031504898608e-03,nan
nan,1.121144053267736276e-03,2.538561367614184262e-03,4.210190223608103327e-03,6.420941164285872554e-03,9.312342469726907906e-03,1.411765196329143636e-02,1.983699896602223248e-02,2.729702062990181297e-02,3.367161651837728698e-02,3.900864581373475470e-02,4.363157692366743945e-02,4.769625111974417492e-02,5.133768686420461802e-02,5.464267529496837084e-02,5.764923840200774502e-02,6.043067371443353042e-02,6.306767038793782698e-02,6.552173256772833576e-02,6.787242902774627551e-02,7.010603145010629866e-02,7.220181741177654489e-02,7.422269675455867022e-02,7.616678783150940268e-02,7.801776254167266944e-02,7.979752408786555673e-02,8.147510657542766932e-02,8.308946782612308679e-02,8.464783872489212158e-02,8.610867818473189050e-02,8.752626663146834129e-02,8.886710716382237307e-02,9.017227231269912824e-02,9.139030663500746776e-02,9.254006247778177874e-02,9.362053813850329531e-02,9.464091044364233984e-02,9.558979515481420830e-02,9.648204756985825914e-02,9.729013475293657454e-02,9.802534111860541910e-02,9.868686790251449126e-02,9.930513538339495738e-02,9.982554538217482121e-02,1.002840595651672828e-01,1.006535041054693463e-01,1.009394438641813968e-01,1.011603966653250863e-01,1.013117341080261857e-01,1.013676753004215669e-01,1.013546735688460876e-01,1.012578645814088268e-01,1.010934113469316026e-01,1.008181922294036359e-01,1.004945086853392677e-01,1.000981097475779763e-01,9.961199419250374443e-02,9.905176683252875369e-02,9.843429213193850835e-02,9.770736017861907097e-02,9.695141577287537393e-02,9.610694739774751361e-02,9.517264387993026875e-02,9.418169706425948140e-02,9.313210213580633279e-02,9.200961034161000973e-02,9.104608633453441235e-02,8.967555287414386012e-02,8.837962368792035006e-02,8.696392262019264630e-02,8.550767196305986140e-02,8.401471911948411864e-02,8.241012151308163558e-02,8.076223874982600692e-02,7.903358816530217656e-02,7.724646467428963881e-02,7.536555484596582644e-02,7.340256875118472690e-02,7.136100284583181408e-02,6.919262813163111481e-02,6.691693886825751669e-02,6.449557835661347271e-02,6.196363541790711471e-02,5.923997542516137860e-02,5.632061366474180875e-02,5.319789463092586268e-02,4.976662201246626754e-02,4.578474916139859546e-02,4.112588937741579881e-02,3.588164363558456194e-02,3.028530963394816117e-02,2.345886467972637182e-02,1.711273736224488279e-02,1.116610141436238761e-02,8.314299411093642456e-03,5.718787961259991226e-03,3.367563303130238859e-03,1.613715936411875933e-03,7.058950280232022517e-04,nan
nan,8.124283344549598426e-04,1.678670156475871485e-03,3.182012266296415162e-03,4.887927708056367254e-03,7.328006423579143738e-03,1.020125631807901334e-02,1.464155997229891343e-02,2.126093475103113528e-02,2.851589821948173620e-02,3.471576857603479727e-02,3.980563408484549814e-02,4.438262006808207927e-02,4.821886939915616399e-02,5.170338988702138927e-02,5.477746893614052898e-02,5.776014413974936423e-02,6.044323718822987301e-02,6.300326333659019007e-02,6.538653141249968492e-02,6.765847506317478055e-02,6.983873262755423139e-02,7.189544541355298579e-02,7.381981977339130419e-02,7.569112648053726022e-02,7.747252448869690333e-02,7.916283063861305480e-02,8.078784791762830264e-02,8.234934319126320512e-02,8.380297795190819188e-02,8.520116417375923901e-02,8.654680406520862124e-02,8.781932684005802625e-02,8.902621512880405652e-02,9.016721983199318946e-02,9.124452666975846338e-02,9.223206219959735608e-02,9.315388319868765643e-02,9.403586852096222637e-02,9.483347134844696824e-02,9.556175000537392439e-02,9.622472725096228863e-02,9.680189904990810223e-02,9.731965590454892678e-02,9.775942397852388499e-02,9.812317797303177214e-02,9.840345577012729605e-02,9.861577148950928517e-02,9.875492626804734109e-02,9.881917713028259831e-02,9.879799399426178463e-02,9.871604884529854018e-02,9.854771320047168992e-02,9.829626306800767765e-02,9.797539813690127330e-02,9.758082096443354558e-02,9.710131874604907565e-02,9.657486790782621178e-02,9.593139185631203991e-02,9.525747916187995989e-02,9.449640914472495767e-02,9.366336297861989346e-02,9.277427469485650946e-02,9.179376411112466494e-02,9.076708092204863187e-02,8.969355490973901501e-02,8.858937131945546217e-02,8.741062584915032518e-02,8.607602298930225326e-02,8.466376237625711232e-02,8.322615144483437588e-02,8.170269705016827699e-02,8.011042149468329543e-02,7.845404342081620241e-02,7.671980125187453925e-02,7.490601587195538924e-02,7.302857871212636853e-02,7.102994291127265325e-02,6.893334380384011362e-02,6.676249287654209552e-02,6.443041858171581759e-02,6.191560535316165126e-02,5.934090543263460804e-02,5.647174494650414323e-02,5.345660555353390353e-02,5.007356583822009100e-02,4.637707457146128531e-02,4.202269399693957241e-02,3.678602596853566831e-02,3.068102980601585331e-02,2.508299159955511975e-02,1.811661881997259430e-02,1.268825873330961182e-02,8.630240221248204613e-03,6.270446255146546952e-03,3.910901501865071683e-03,2.179332482425627195e-03,9.923953600392942508e-04,3.493077512791415264e-04,nan
nan,4.229189543192140308e-04,1.025681468564120956e-03,2.011206559746692331e-03,3.564390639926473103e-03,5.324159306762705698e-03,7.700303945281275486e-03,1.050350450499074918e-02,1.604547390205924434e-02,2.271194345059698513e-02,2.958888841427334895e-02,3.556463871672144866e-02,4.062049371729072739e-02,4.470497782102333950e-02,4.836493228439665837e-02,5.178908430248400918e-02,5.486180054377148840e-02,5.768016670349719599e-02,6.034064127396273486e-02,6.278089661574783042e-02,6.510554405604557227e-02,6.732363112888889445e-02,6.940100301135951333e-02,7.140839655720317147e-02,7.326682254723912435e-02,7.505879097681852907e-02,7.677832093275427372e-02,7.840077965411430816e-02,7.994960246556985506e-02,8.142860012994680707e-02,8.283173257684284252e-02,8.415320255127788085e-02,8.540344104218558496e-02,8.659959602404121437e-02,8.774352121857005582e-02,8.879546832350108942e-02,8.977725896558105823e-02,9.070589467919690230e-02,9.155576478051116740e-02,9.233838103516579798e-02,9.306435680337706018e-02,9.370736753122473062e-02,9.428259067457810116e-02,9.478089258820411589e-02,9.521591030023085489e-02,9.557949296102807857e-02,9.586526738631304112e-02,9.604981600372392014e-02,9.618472660364027482e-02,9.625116125747390505e-02,9.623175406302364454e-02,9.615002396079863622e-02,9.598982849553651386e-02,9.574686950443508926e-02,9.542512669934044567e-02,9.501713071006165356e-02,9.457402047819241098e-02,9.404510106357127919e-02,9.344423739906378146e-02,9.275553315008594479e-02,9.200614074911805940e-02,9.118314008907787982e-02,9.030841518409860047e-02,8.934880376013866476e-02,8.835245944637840076e-02,8.729353226652646069e-02,8.617485211414875612e-02,8.495580764986285227e-02,8.365051496980793755e-02,8.226939082604400877e-02,8.084166766055120301e-02,7.930980344533988813e-02,7.773511359356574668e-02,7.605544682383245936e-02,7.433355617892414835e-02,7.251292036000175911e-02,7.057864593944446208e-02,6.856452306749930004e-02,6.643281912937354372e-02,6.415657047525132051e-02,6.180854928889438493e-02,5.925948171462510489e-02,5.647540963158338700e-02,5.357452873986834341e-02,5.018148398744675526e-02,4.671432780374616678e-02,4.254784160176246222e-02,3.758976707367656100e-02,3.184348988449971218e-02,2.562881924248547327e-02,2.002911969255641647e-02,1.427435840313243803e-02,9.484904088151146703e-03,6.767506620436668577e-03,4.593607715274027059e-03,2.627244015816038517e-03,1.294305794416190751e-03,4.433587185169476875e-04,8.275399041753055292e-05,nan
nan,1.612888515138599026e-04,5.441576250729584282e-04,1.184201403494791359e-03,2.605207735734044877e-03,4.098787511304465350e-03,5.852691052858665505e-03,8.160500351470341765e-03,1.214463068607940857e-02,1.765674756199311565e-02,2.413780521695622905e-02,3.057046111759519763e-02,3.607533565285624133e-02,4.083504932679854482e-02,4.475331526592263298e-02,4.853091588561710135e-02,5.170044104090994186e-02,5.473058311548802818e-02,5.748737162419567670e-02,5.998031056104925762e-02,6.243371800683853584e-02,6.466890211572014213e-02,6.683679543507436982e-02,6.882908411438122542e-02,7.074351094216149716e-02,7.258039769922812467e-02,7.428503983927678411e-02,7.593439621832964725e-02,7.747487565189146996e-02,7.895307734150122658e-02,8.037599221295156637e-02,8.170775585124698259e-02,8.294677268955187588e-02,8.413280290023789076e-02,8.524610823604897303e-02,8.629529563447675689e-02,8.727531734623780735e-02,8.820054696079185352e-02,8.903378889026315746e-02,8.980357264399947692e-02,9.050903205548720132e-02,9.115619010449503568e-02,9.172050602936006325e-02,9.221811092709311652e-02,9.262605904502423104e-02,9.298165540493136261e-02,9.324913722268524108e-02,9.345418275630947014e-02,9.358498543758350663e-02,9.364921305197579371e-02,9.363491201093851468e-02,9.354590537801241168e-02,9.339577137988805400e-02,9.315992655938382105e-02,9.284248692688423787e-02,9.247081567122469870e-02,9.201288037211295678e-02,9.149824557715760531e-02,9.089416392592482297e-02,9.022338676138522140e-02,8.948476401336649677e-02,8.866757999615371144e-02,8.781377843676499428e-02,8.689025669038222266e-02,8.588005987282626430e-02,8.481402563595044630e-02,8.368730871100693580e-02,8.247976947339642761e-02,8.116752284245180860e-02,7.980804192681592579e-02,7.836056730875677612e-02,7.685160698082228736e-02,7.526765774507013229e-02,7.358861635656881173e-02,7.181677103660687178e-02,6.999525160675075519e-02,6.803908086266399757e-02,6.595947645576150098e-02,6.376799340104233327e-02,6.147840266617737859e-02,5.898483256440276157e-02,5.632206204087972234e-02,5.345172098157520424e-02,5.032169334771470492e-02,4.685878724600969075e-02,4.275234749829828762e-02,3.829931437422777474e-02,3.257432097872441090e-02,2.662603128353131093e-02,2.044352037835032998e-02,1.549253524200515895e-02,1.109012351887308026e-02,7.323264818840149668e-03,5.073989731500998766e-03,3.137669766115825775e-03,1.282817252240906012e-03,5.550114698393321562e-04,1.660919647996748503e-04,1.706288522924591763e-05,nan
