nan,0.000000000000000000e+00,0.000000000000000000e+00,0.000000000000000000e+00,0.000000000000000000e+00,0.000000000000000000e+00,0.000000000000000000e+00,0.000000000000000000e+00,0.000000000000000000e+00,0.000000000000000000e+00,0.000000000000000000e+00,0.000000000000000000e+00,0.000000000000000000e+00,0.000000000000000000e+00,0.000000000000000000e+00,0.000000000000000000e+00,0.000000000000000000e+00,0.000000000000000000e+00,0.000000000000000000e+00,0.000000000000000000e+00,0.000000000000000000e+00,0.000000000000000000e+00,0.000000000000000000e+00,0.000000000000000000e+00,0.000000000000000000e+00,0.000000000000000000e+00,0.000000000000000000e+00,0.000000000000000000e+00,0.000000000000000000e+00,0.000000000000000000e+00,0.000000000000000000e+00,0.000000000000000000e+00,0.000000000000000000e+00,0.000000000000000000e+00,0.000000000000000000e+00,0.000000000000000000e+00,0.000000000000000000e+00,0.000000000000000000e+00,0.000000000000000000e+00,0.000000000000000000e+00,0.000000000000000000e+00,0.000000000000000000e+00,0.000000000000000000e+00,0.000000000000000000e+00,0.000000000000000000e+00,1.557870475953127831e-01,2.505299655682882154e-01,2.480461673020926128e-01,2.510647600840701932e-01,2.536484887844504543e-01,2.575144483817423668e-01,2.600857762889264846e-01,2.624163188180329565e-01,2.657519471428709257e-01,1.597293827276782263e-01,0.000000000000000000e+00,0.000000000000000000e+00,0.000000000000000000e+00,0.000000000000000000e+00,0.000000000000000000e+00,0.000000000000000000e+00,0.000000000000000000e+00,0.000000000000000000e+00,0.000000000000000000e+00,0.000000000000000000e+00,0.000000000000000000e+00,0.000000000000000000e+00,0.000000000000000000e+00,0.000000000000000000e+00,0.000000000000000000e+00,0.000000000000000000e+00,0.000000000000000000e+00,0.000000000000000000e+00,0.000000000000000000e+00,0.000000000000000000e+00,0.000000000000000000e+00,0.000000000000000000e+00,0.000000000000000000e+00,0.000000000000000000e+00,0.000000000000000000e+00,0.000000000000000000e+00,0.000000000000000000e+00,0.000000000000000000e+00,0.000000000000000000e+00,0.000000000000000000e+00,0.000000000000000000e+00,0.000000000000000000e+00,0.000000000000000000e+00,0.000000000000000000e+00,0.000000000000000000e+00,0.000000000000000000e+00,0.000000000000000000e+00,0.000000000000000000e+00,0.000000000000000000e+00,0.000000000000000000e+00,0.000000000000000000e+00,0.000000000000000000e+00,0.000000000000000000e+00,0.000000000000000000e+00,nan
nan,0.000000000000000000e+00,0.000000000000000000e+00,0.000000000000000000e+00,0.000000000000000000e+00,0.000000000000000000e+00,0.000000000000000000e+00,0.000000000000000000e+00,0.000000000000000000e+00,0.000000000000000000e+00,0.000000000000000000e+00,0.000000000000000000e+00,0.000000000000000000e+00,0.000000000000000000e+00,0.000000000000000000e+00,0.000000000000000000e+00,0.000000000000000000e+00,0.000000000000000000e+00,0.000000000000000000e+00,0.000000000000000000e+00,0.000000000000000000e+00,0.000000000000000000e+00,0.000000000000000000e+00,0.000000000000000000e+00,0.000000000000000000e+00,0.000000000000000000e+00,0.000000000000000000e+00,0.000000000000000000e+00,0.000000000000000000e+00,0.000000000000000000e+00,0.000000000000000000e+00,0.000000000000000000e+00,0.000000000000000000e+00,0.000000000000000000e+00,0.000000000000000000e+00,0.000000000000000000e+00,0.000000000000000000e+00,0.000000000000000000e+00,0.000000000000000000e+00,0.000000000000000000e+00,0.000000000000000000e+00,0.000000000000000000e+00,0.000000000000000000e+00,0.000000000000000000e+00,0.000000000000000000e+00,8.731391778420956318e-02,2.076813866918780782e-01,2.456089184365470857e-01,2.476909821747555474e-01,2.519671662040244287e-01,2.551194682350004794e-01,2.583434288037813609e-01,2.649372607525620205e-01,2.732528290625044765e-01,1.168214601561648469e-01,0.000000000000000000e+00,0.000000000000000000e+00,0.000000000000000000e+00,0.000000000000000000e+00,0.000000000000000000e+00,0.000000000000000000e+00,0.000000000000000000e+00,0.000000000000000000e+00,0.000000000000000000e+00,0.000000000000000000e+00,0.000000000000000000e+00,0.000000000000000000e+00,0.000000000000000000e+00,0.000000000000000000e+00,0.000000000000000000e+00,0.000000000000000000e+00,0.000000000000000000e+00,0.000000000000000000e+00,0.000000000000000000e+00,0.000000000000000000e+00,0.000000000000000000e+00,0.000000000000000000e+00,0.000000000000000000e+00,0.000000000000000000e+00,0.000000000000000000e+00,0.000000000000000000e+00,0.000000000000000000e+00,0.000000000000000000e+00,0.000000000000000000e+00,0.000000000000000000e+00,0.000000000000000000e+00,0.000000000000000000e+00,0.000000000000000000e+00,0.000000000000000000e+00,0.000000000000000000e+00,0.000000000000000000e+00,0.000000000000000000e+00,0.000000000000000000e+00,0.000000000000000000e+00,0.000000000000000000e+00,0.000000000000000000e+00,0.000000000000000000e+00,0.000000000000000000e+00,0.000000000000000000e+00,nan
nan,0.000000000000000000e+00,0.000000000000000000e+00,0.000000000000000000e+00,0.000000000000000000e+00,0.000000000000000000e+00,0.000000000000000000e+00,0.000000000000000000e+00,0.000000000000000000e+00,0.000000000000000000e+00,0.000000000000000000e+00,0.000000000000000000e+00,0.000000000000000000e+00,0.000000000000000000e+00,0.000000000000000000e+00,0.000000000000000000e+00,0.000000000000000000e+00,0.000000000000000000e+00,0.000000000000000000e+00,0.000000000000000000e+00,0.000000000000000000e+00,0.000000000000000000e+00,0.000000000000000000e+00,0.000000000000000000e+00,0.000000000000000000e+00,0.000000000000000000e+00,0.000000000000000000e+00,0.000000000000000000e+00,0.000000000000000000e+00,0.000000000000000000e+00,0.000000000000000000e+00,0.000000000000000000e+00,0.000000000000000000e+00,0.000000000000000000e+00,0.000000000000000000e+00,0.000000000000000000e+00,0.000000000000000000e+00,0.000000000000000000e+00,0.000000000000000000e+00,0.000000000000000000e+00,0.000000000000000000e+00,0.000000000000000000e+00,0.000000000000000000e+00,0.000000000000000000e+00,0.000000000000000000e+00,1.365615641055916984e-01,2.429720736386988544e-01,2.481656380246512750e-01,2.494880825579686434e-01,2.516571215729586641e-01,2.533556435762650549e-01,2.522215352534120658e-01,2.501326164893339365e-01,2.432126872745256074e-01,1.291757992820915246e-01,0.000000000000000000e+00,0.000000000000000000e+00,0.000000000000000000e+00,0.000000000000000000e+00,0.000000000000000000e+00,0.000000000000000000e+00,0.000000000000000000e+00,0.000000000000000000e+00,0.000000000000000000e+00,0.000000000000000000e+00,0.000000000000000000e+00,0.000000000000000000e+00,0.000000000000000000e+00,0.000000000000000000e+00,0.000000000000000000e+00,0.000000000000000000e+00,0.000000000000000000e+00,0.000000000000000000e+00,0.000000000000000000e+00,0.000000000000000000e+00,0.000000000000000000e+00,0.000000000000000000e+00,0.000000000000000000e+00,0.000000000000000000e+00,0.000000000000000000e+00,0.000000000000000000e+00,0.000000000000000000e+00,0.000000000000000000e+00,0.000000000000000000e+00,0.000000000000000000e+00,0.000000000000000000e+00,0.000000000000000000e+00,0.000000000000000000e+00,0.000000000000000000e+00,0.000000000000000000e+00,0.000000000000000000e+00,0.000000000000000000e+00,0.000000000000000000e+00,0.000000000000000000e+00,0.000000000000000000e+00,0.000000000000000000e+00,0.000000000000000000e+00,0.000000000000000000e+00,0.000000000000000000e+00,nan
nan,0.000000000000000000e+00,0.000000000000000000e+00,0.000000000000000000e+00,0.000000000000000000e+00,0.000000000000000000e+00,0.000000000000000000e+00,0.000000000000000000e+00,0.000000000000000000e+00,0.000000000000000000e+00,0.000000000000000000e+00,0.000000000000000000e+00,0.000000000000000000e+00,0.000000000000000000e+00,0.000000000000000000e+00,0.000000000000000000e+00,0.000000000000000000e+00,2.279511762078581527e-02,1.957819004461588963e-02,0.000000000000000000e+00,0.000000000000000000e+00,0.000000000000000000e+00,0.000000000000000000e+00,0.000000000000000000e+00,0.000000000000000000e+00,0.000000000000000000e+00,0.000000000000000000e+00,0.000000000000000000e+00,0.000000000000000000e+00,0.000000000000000000e+00,0.000000000000000000e+00,0.000000000000000000e+00,2.175170577030615532e-02,0.000000000000000000e+00,0.000000000000000000e+00,0.000000000000000000e+00,0.000000000000000000e+00,0.000000000000000000e+00,0.000000000000000000e+00,0.000000000000000000e+00,0.000000000000000000e+00,0.000000000000000000e+00,0.000000000000000000e+00,0.000000000000000000e+00,0.000000000000000000e+00,1.267309435931448791e-01,2.462416790586078319e-01,2.514127410135907903e-01,2.532243207499588200e-01,2.546194718493078879e-01,2.541844801011447497e-01,2.507065804581157242e-01,2.475590059932565312e-01,2.276026556642054277e-01,2.163493514419417285e-01,0.000000000000000000e+00,3.931162059055779562e-02,3.868439547921162514e-02,0.000000000000000000e+00,0.000000000000000000e+00,0.000000000000000000e+00,0.000000000000000000e+00,0.000000000000000000e+00,0.000000000000000000e+00,0.000000000000000000e+00,0.000000000000000000e+00,0.000000000000000000e+00,0.000000000000000000e+00,0.000000000000000000e+00,0.000000000000000000e+00,0.000000000000000000e+00,0.000000000000000000e+00,2.191918732927956859e-02,0.000000000000000000e+00,0.000000000000000000e+00,2.069929605281569523e-02,0.000000000000000000e+00,0.000000000000000000e+00,0.000000000000000000e+00,0.000000000000000000e+00,0.000000000000000000e+00,0.000000000000000000e+00,2.956333205873140375e-03,0.000000000000000000e+00,0.000000000000000000e+00,0.000000000000000000e+00,0.000000000000000000e+00,0.000000000000000000e+00,2.244602131458421027e-03,0.000000000000000000e+00,8.534914016409848522e-03,0.000000000000000000e+00,0.000000000000000000e+00,3.806491476706503653e-03,0.000000000000000000e+00,0.000000000000000000e+00,0.000000000000000000e+00,0.000000000000000000e+00,0.000000000000000000e+00,nan
nan,1.993317318442394941e-03,4.135399871306622011e-03,1.492827314088654130e-03,2.768921591251222170e-03,6.101572444497561573e-03,1.274051220329323712e-02,1.176590110010389267e-02,2.813992816214703693e-02,4.024901850631186495e-02,1.113923912980458245e-02,4.538720750220983507e-02,8.193351954200333090e-03,6.807120445298175948e-02,4.761193868039631516e-02,3.404462989396436073e-02,5.494276150573992878e-02,7.008840089464665746e-02,8.673869098783924814e-02,5.824265324848323239e-02,4.117855709371478351e-02,5.680810574232025151e-02,1.033779644807259444e-02,5.952251610426951417e-02,5.204895026589751589e-02,5.902937070755100851e-02,4.884133162246213217e-02,9.785340531719122215e-02,1.054615740877877239e-01,7.004478981212139410e-02,6.749382342394276424e-02,1.131582992773531721e-01,1.059091079174892258e-01,1.779887895597936573e-02,9.608207211629510303e-02,4.890037575707054107e-02,3.923139319241807088e-02,6.643756671891876998e-03,4.454393599381557822e-02,2.531059864049524724e-02,7.216312089087882631e-02,7.948868002732489835e-02,3.266184145270218525e-02,1.075431839959459512e-01,1.337250009975609055e-01,2.103466213468175861e-01,2.396722954543909490e-01,2.502757926295108848e-01,2.515419270304628530e-01,2.562129785306159202e-01,2.544933954744229565e-01,2.503221252326521817e-01,2.434045525600797288e-01,2.327432183735029803e-01,2.252190213425799836e-01,1.340794048976020614e-01,1.802505518823044328e-01,4.090037582134663230e-02,9.108313886816048199e-02,1.148688254803746089e-01,1.456499634149749367e-01,1.332916002408300049e-01,7.618300747578289622e-02,2.226645020025004931e-02,2.146483650052219069e-02,3.367304591194052177e-02,9.432252954487893581e-02,7.464656911067713008e-02,2.066635697593368834e-02,6.692467091452304617e-02,8.288707972481194897e-02,4.858149876144754464e-02,8.516191192856001346e-02,4.923230136465776841e-02,8.360103112290875882e-02,5.121267404795938616e-02,3.504347697031863496e-02,3.836621164334598488e-02,6.739074273686264382e-02,8.147957838118134732e-03,7.030557857245708919e-02,2.645036419588979448e-02,5.193430109985654186e-02,1.990676916308924474e-02,4.925901315777512363e-02,5.078741387718223310e-02,3.793910929890757788e-02,5.489880187460088878e-02,4.191250011808214659e-02,4.864747509462986896e-02,4.313897474211875194e-02,3.316781548302154964e-02,1.603131814944269446e-03,2.198795205145153212e-02,8.545663744673991091e-03,7.718869978673844820e-03,6.446759175529807526e-03,1.831065881704775156e-03,3.842111907906683912e-04,nan
nan,3.820934896355369925e-03,6.568516983196555359e-03,9.539425175111509309e-03,2.147417367920177039e-02,2.974956781203988779e-02,3.732024712550472550e-02,4.573682665973162476e-02,5.137797897015383003e-02,5.611306706236902919e-02,5.234026407917181933e-02,6.463615122972092564e-02,6.929828467391363489e-02,7.840401792190618280e-02,8.148997560533562112e-02,8.428584293795678140e-02,8.720718980732473924e-02,8.972527714862552073e-02,9.181891370770231542e-02,9.388835548156945765e-02,9.635815417204014743e-02,1.009518051653915394e-01,1.048748277675734253e-01,1.095160077273645699e-01,1.131869767066403520e-01,1.160321766480831990e-01,1.185550972867085440e-01,1.216718128375084834e-01,1.241565701530532306e-01,1.268215890491107556e-01,1.299319844103547505e-01,1.329356810676992351e-01,1.352273342086886265e-01,1.409236553048867080e-01,1.445819938689546780e-01,1.479574629432424127e-01,1.238179932251479570e-01,1.580841399511264678e-01,1.490454871791467573e-01,1.680890676200186840e-01,1.730131820622253236e-01,1.692148440991886882e-01,1.533104525609875479e-01,1.977313056335175401e-01,2.071781415435775542e-01,2.185914640048889357e-01,2.315493454947495644e-01,2.381525394319570499e-01,2.421029476431010297e-01,2.438407190215937659e-01,2.435276800400493769e-01,2.397726311564909174e-01,2.346070778435031812e-01,2.279323370121132952e-01,2.202392206652434292e-01,2.107849660148238546e-01,1.980137372781820282e-01,1.094675937108229025e-01,1.729299662443346819e-01,1.696775833513751996e-01,1.649724764435068214e-01,1.610427418468388661e-01,1.567773343100194172e-01,1.505660638088446301e-01,1.474726144703885633e-01,1.437716691735345942e-01,1.391644896537642395e-01,1.354941788581928708e-01,1.327680566881447588e-01,1.255775137125960950e-01,1.260575841069685732e-01,1.238220404016257270e-01,1.067446901872931148e-01,1.159417955722422400e-01,1.132228814262353916e-01,1.076894863826083626e-01,1.058374097376148931e-01,1.034435330071069165e-01,1.017116532980019417e-01,8.896043514662055340e-02,9.338979679477910079e-02,8.998987569158016508e-02,7.713777123435722194e-02,8.241762989327058864e-02,7.865080249620659547e-02,7.494807279377301013e-02,7.073281223647831517e-02,6.708273322444670284e-02,6.310019581841695702e-02,5.954857328867008831e-02,5.589739078976063702e-02,5.265540062981955566e-02,4.132672962481121620e-02,3.157848665881456823e-02,2.052040138084817653e-02,1.375400865050104005e-02,8.986647747065364816e-03,5.222463669066745688e-03,2.332368106215491725e-03,nan
nan,4.169806691959401963e-03,7.323463582415329180e-03,1.182856318917413843e-02,2.022573391608705612e-02,2.944375544824804833e-02,3.738791263070417870e-02,4.574187172838547338e-02,5.154002266654167386e-02,5.611391973351033402e-02,6.075470956557818547e-02,6.575140673034529648e-02,7.127487334408064146e-02,7.695160478520791936e-02,8.078451431975554320e-02,8.379646207483358589e-02,8.661899111661827688e-02,8.931888069926992302e-02,9.170019658494327208e-02,9.431354793737001252e-02,9.725500401274327078e-02,1.007361765637319051e-01,1.050255676541866912e-01,1.086366957015684753e-01,1.121720561729170063e-01,1.151332913656901158e-01,1.180523271674665253e-01,1.211343463873117143e-01,1.238913932417533559e-01,1.268649814325225056e-01,1.298205308739859842e-01,1.327654798532483804e-01,1.360849090798824934e-01,1.399738615755563853e-01,1.441200904248963743e-01,1.477788409509017131e-01,1.523188132214255419e-01,1.571966171168076576e-01,1.621011837810830969e-01,1.669105656920542580e-01,1.722984381816778932e-01,1.788908417674149876e-01,1.864268501986282578e-01,1.944452913639695413e-01,2.022462710886186732e-01,2.113591346218164635e-01,2.185700770922645031e-01,2.248278944413328595e-01,2.289701088049908573e-01,2.307722215690699297e-01,2.306796514908804885e-01,2.279073649030964877e-01,2.239318325477200611e-01,2.181539335145526448e-01,2.117685854515934940e-01,2.034427497939929885e-01,1.926176547511528614e-01,1.833773393805812058e-01,1.736833288288596178e-01,1.686482021086235517e-01,1.643137618084769547e-01,1.605604950532194541e-01,1.556909926551784396e-01,1.508442854408181821e-01,1.468366307811392879e-01,1.430427857416252391e-01,1.391771071834023987e-01,1.355958103981112772e-01,1.321292878415951111e-01,1.288855663477594393e-01,1.259634648674145818e-01,1.224556337687340291e-01,1.190158394421000354e-01,1.157644631290090931e-01,1.128330031336170769e-01,1.093468737410588226e-01,1.062201530539188254e-01,1.034655310941563627e-01,1.008423683059732623e-01,9.783549952254069759e-02,9.384066828093970414e-02,9.000685192252283473e-02,8.637671203151564558e-02,8.263986552475331704e-02,7.871998820175016287e-02,7.535275561928198029e-02,7.103298860986402563e-02,6.676001619505628204e-02,6.312916737650969834e-02,5.941136696827174074e-02,5.568588976201811758e-02,5.108768709031822480e-02,4.349176739731988595e-02,3.357790596383643938e-02,2.322335969181056614e-02,1.499247350983190334e-02,9.942478212765282208e-03,5.520333023886736870e-03,2.731675773200443157e-03,nan
nan,3.948272170588870353e-03,6.917024919728723652e-03,1.170125957205106135e-02,1.903157463331582935e-02,2.856778263208373247e-02,3.802024735248978743e-02,4.541501285566602875e-02,5.136304494544800814e-02,5.648537438215613105e-02,6.135142512226379741e-02,6.628139780977147788e-02,7.161345627433561567e-02,7.610099427031628838e-02,7.988185836781930282e-02,8.321510263858093726e-02,8.618428858137930360e-02,8.904358679007605415e-02,9.174397571855269495e-02,9.451756755430457124e-02,9.765634119454107143e-02,1.010969093710961386e-01,1.047526581425346770e-01,1.081605050567816390e-01,1.115494368094765293e-01,1.145868846415899617e-01,1.175841306009379333e-01,1.205819329057340461e-01,1.235469004780476165e-01,1.264914328120117781e-01,1.294974818404709127e-01,1.325342378465879378e-01,1.358337129297264856e-01,1.398839931433717154e-01,1.433914375271519159e-01,1.473166238210815160e-01,1.516020582146502260e-01,1.561260607220073537e-01,1.608854907334438256e-01,1.655697187423879890e-01,1.707395980426634763e-01,1.765693066248260057e-01,1.830808302120064956e-01,1.901164092103663494e-01,1.966576186198867315e-01,2.035374908105030411e-01,2.102354706928244443e-01,2.146600067879188556e-01,2.177434352471731838e-01,2.192722654810685956e-01,2.189180793463539054e-01,2.171518451627372781e-01,2.138919747132546900e-01,2.095156644961087833e-01,2.035916225270951174e-01,1.965369556813053309e-01,1.887906360556542151e-01,1.807290723507231356e-01,1.732295409411584997e-01,1.679740964352795241e-01,1.631005241045143939e-01,1.589036192737650621e-01,1.545097275292258709e-01,1.502887494018752823e-01,1.462498146472436811e-01,1.425278802460248073e-01,1.388119479504978937e-01,1.351412573678811291e-01,1.317652757270334485e-01,1.285652819317592011e-01,1.255276249519940990e-01,1.220689068114814702e-01,1.188667376824153604e-01,1.155834700135360132e-01,1.124014652981138729e-01,1.091391788209062352e-01,1.060144475838588202e-01,1.032220146192362742e-01,1.003150402949646025e-01,9.730889446774179663e-02,9.375658354176277798e-02,9.005103074807582764e-02,8.648125586534886888e-02,8.279419593826506385e-02,7.891702200151053115e-02,7.522253155234839839e-02,7.127334154214250150e-02,6.713601956388086378e-02,6.312660593170227319e-02,5.906673984424329338e-02,5.477152319546254450e-02,4.958625915676664886e-02,4.295780127323589603e-02,3.374604400424541240e-02,2.588354982240376884e-02,1.712774047705935276e-02,9.589396482446936598e-03,5.670493496590846977e-03,2.918135311176245014e-03,nan
nan,3.403970718464332818e-03,6.229260139505530744e-03,9.856728816828681447e-03,1.835066292693759288e-02,2.846106853070862891e-02,3.779643740535605645e-02,4.500186590838707590e-02,5.115399997805329668e-02,5.655208611125488866e-02,6.147900301700431891e-02,6.638029015710389391e-02,7.111514584270171857e-02,7.539979045981735906e-02,7.921662732450122923e-02,8.258657268740610125e-02,8.572987490555790402e-02,8.868363087464611882e-02,9.155996360628346209e-02,9.449401959594326550e-02,9.762518976341164056e-02,1.009371863124167157e-01,1.043646254639458010e-01,1.077201494260316972e-01,1.109002171056287234e-01,1.140002123121246630e-01,1.170234050470669307e-01,1.200101857523796778e-01,1.229684160221510281e-01,1.259709507627722880e-01,1.290108843686459117e-01,1.321021228836768702e-01,1.354760030991803421e-01,1.390266852379524742e-01,1.427318839395635697e-01,1.465077964985455894e-01,1.505742476857758194e-01,1.548047641918127715e-01,1.593127781361323436e-01,1.639658998164077452e-01,1.686305037583423205e-01,1.739470497143386363e-01,1.795683765604284832e-01,1.852280643539872540e-01,1.911414381400023954e-01,1.965441765437402344e-01,2.016421273684222970e-01,2.052799750042444971e-01,2.079600970962429130e-01,2.091566174685592638e-01,2.090792802047369836e-01,2.074255904532953387e-01,2.051616365137413078e-01,2.009739725703862112e-01,1.965683949071924952e-01,1.903909174282756855e-01,1.844833525492903525e-01,1.775015094526599946e-01,1.716395349609939891e-01,1.664123409703334722e-01,1.616669064104770681e-01,1.574255331512358358e-01,1.533891002596224629e-01,1.492892952845176202e-01,1.453479704584841048e-01,1.416697927797903600e-01,1.380813341240097747e-01,1.345463253685709737e-01,1.312473985574463264e-01,1.280086148536311863e-01,1.248369994845501402e-01,1.215959189073661517e-01,1.184485354208660440e-01,1.152764251410455798e-01,1.120941193231896338e-01,1.089003817261372103e-01,1.058484417279474815e-01,1.028377560478426211e-01,9.987444674494866392e-02,9.674906931188442805e-02,9.333218843076723781e-02,8.985199668965418440e-02,8.632559184973406796e-02,8.261223582825805156e-02,7.890904940212196961e-02,7.511513501798679215e-02,7.123187153384148707e-02,6.718632551507974782e-02,6.302511493301671264e-02,5.878363390629515184e-02,5.421343680169438128e-02,4.875608892526178684e-02,4.225683784159994794e-02,3.389563879145784941e-02,2.396391867250159680e-02,1.501168371602985135e-02,9.212268109178854344e-03,5.860906449974333764e-03,3.089721227558699882e-03,nan
nan,3.158552663041947969e-03,5.391782795792521635e-03,9.627056352164030731e-03,1.724757324711412299e-02,2.812453251063114917e-02,3.701261619992662899e-02,4.470175696744203842e-02,5.079076036601776201e-02,5.631823187946753684e-02,6.136071700518990618e-02,6.608447715829138258e-02,7.064478657645253956e-02,7.475952482579278913e-02,7.856857841664219300e-02,8.199468760249688237e-02,8.521957665327442588e-02,8.826769020938890487e-02,9.126916721212910422e-02,9.429797228171839241e-02,9.743241898278381941e-02,1.006630271051637271e-01,1.038711721632585017e-01,1.071214432561619079e-01,1.102746392372254275e-01,1.133220277197794917e-01,1.163610873257990147e-01,1.193399159383728703e-01,1.222976878257770045e-01,1.252680037643755795e-01,1.282786818762822745e-01,1.314849211642853399e-01,1.347127571862271611e-01,1.381263010932423096e-01,1.417197017371076839e-01,1.453511408321589427e-01,1.492249695923921760e-01,1.531848242813166339e-01,1.572223978609494366e-01,1.617840848957676214e-01,1.663085089546612605e-01,1.708576363632779149e-01,1.758324855253149133e-01,1.808596876034317957e-01,1.856467088305166768e-01,1.901001234489831659e-01,1.940030012515395197e-01,1.973683359520485570e-01,1.993283627235942213e-01,2.002410572951422996e-01,2.005034689428525918e-01,1.989761132389130383e-01,1.967824877416300688e-01,1.933865279375390211e-01,1.893897964500469433e-01,1.847220209720533135e-01,1.794977461684492959e-01,1.739629920416402298e-01,1.689742934296520616e-01,1.641630535068299146e-01,1.598402199275086866e-01,1.558014397914440352e-01,1.517795751030713292e-01,1.479827897602214448e-01,1.442286454373183369e-01,1.406378313643286138e-01,1.371466377452893459e-01,1.337328888144199701e-01,1.304637898224397519e-01,1.272528493426991758e-01,1.240809283312931388e-01,1.209636428995884971e-01,1.178085780167581753e-01,1.146929726974876690e-01,1.115610325299430106e-01,1.084702241997204109e-01,1.054357437276290388e-01,1.024185806531999476e-01,9.936330511482292793e-02,9.622392160231565961e-02,9.290308883413272989e-02,8.951521148082305923e-02,8.599706217477334769e-02,8.241723466383069074e-02,7.871918062560573359e-02,7.496483591470684549e-02,7.103838208310975233e-02,6.702483122550459416e-02,6.278563083416777157e-02,5.835865367077002624e-02,5.347526180881719687e-02,4.804409155311874929e-02,4.144716622453025606e-02,3.316667065338149700e-02,2.294690366863302508e-02,1.446427324613393933e-02,8.139450798292417744e-03,5.459678393718798810e-03,3.021974381152355525e-03,nan
nan,2.918326396911354211e-03,5.251607197100963305e-03,8.984053967000738689e-03,1.581400028074710779e-02,2.676458513758042668e-02,3.665923608772865550e-02,4.377562989715816366e-02,5.038039004820274447e-02,5.591881007817124660e-02,6.086538980937192256e-02,6.557306337460894197e-02,7.003052901243225770e-02,7.408235527831269485e-02,7.788985750163476829e-02,8.136228607580094085e-02,8.460352854533080558e-02,8.775325065301493865e-02,9.080708288735855893e-02,9.390503037711192547e-02,9.702046324076123163e-02,1.001630637987101224e-01,1.032979690123629335e-01,1.064875594274223569e-01,1.095154703953199193e-01,1.125879552297462810e-01,1.155867270524846002e-01,1.185402481922008810e-01,1.214593297968458441e-01,1.244359512358633596e-01,1.274225468371240066e-01,1.305539119552989180e-01,1.337378763483365318e-01,1.370943005595640640e-01,1.404511005861496797e-01,1.440051177842783803e-01,1.476376392498336965e-01,1.514477197740348724e-01,1.552996967184080146e-01,1.593061743895170523e-01,1.634701505479891626e-01,1.675983582613213563e-01,1.719098636457090379e-01,1.761360711210784580e-01,1.800934656024652525e-01,1.838063118373237381e-01,1.872055703241963520e-01,1.897631481119066987e-01,1.917024052423214331e-01,1.925432144695639891e-01,1.924467937465286493e-01,1.912510048690356235e-01,1.893364437156566937e-01,1.868800802942917616e-01,1.832123885622034265e-01,1.794586540784336715e-01,1.750877082755807612e-01,1.705935974451621984e-01,1.661976103061530985e-01,1.617727834983938018e-01,1.576880472831787006e-01,1.539089941259072780e-01,1.501334498657593552e-01,1.464632159221446739e-01,1.428502728989195503e-01,1.394085053589321221e-01,1.360180650289644633e-01,1.327634488602104090e-01,1.295148139187158320e-01,1.263935181943914576e-01,1.232691887171259992e-01,1.202048589791695626e-01,1.171292209789958072e-01,1.140167201072468661e-01,1.109796306827158519e-01,1.079147188713596994e-01,1.048866786481500585e-01,1.018680725376955032e-01,9.879169977374240019e-02,9.564428625838355957e-02,9.239510396596672948e-02,8.904865936478817412e-02,8.562731686241741025e-02,8.202776623126219191e-02,7.839700024839396653e-02,7.464002613228858107e-02,7.074806313498341326e-02,6.662800663703044579e-02,6.238015086723353031e-02,5.777845488461567924e-02,5.282621172544378629e-02,4.719264319875395713e-02,4.050385801564285182e-02,3.201133202330086469e-02,2.212846927633930691e-02,1.319439288823577583e-02,7.559950212082919979e-03,4.578732266017698609e-03,2.272566258774896646e-03,nan
nan,2.765361254893486994e-03,5.369531021967379608e-03,9.246960709525466407e-03,1.573990781397321959e-02,2.595115904037523583e-02,3.543629222377098209e-02,4.321391714252372646e-02,4.952263215959624987e-02,5.521411703956526085e-02,6.037235386155737765e-02,6.499508963539693540e-02,6.932383960268408141e-02,7.338718691340673228e-02,7.715496502102094090e-02,8.065035571724328556e-02,8.396894045116540251e-02,8.715868199324314225e-02,9.028346623034018414e-02,9.332532678768434842e-02,9.645771312061841851e-02,9.956764694003195082e-02,1.026769283917094711e-01,1.057090798414499766e-01,1.087426097189455043e-01,1.117455824316519741e-01,1.147040987391895889e-01,1.176296641941514537e-01,1.205617536024965325e-01,1.234885153848268580e-01,1.264776241449813432e-01,1.294932685478291656e-01,1.325852154138565109e-01,1.357924460434604130e-01,1.390602668623900917e-01,1.424276750543509718e-01,1.458860158338971535e-01,1.494626438484598085e-01,1.530367523654737050e-01,1.568243807048541327e-01,1.604769057050021708e-01,1.642677355231095260e-01,1.681110602207528670e-01,1.716176251508776673e-01,1.752003792937862070e-01,1.784547692404646058e-01,1.810450969452983006e-01,1.833054282309928007e-01,1.844457135185086361e-01,1.850979105108972733e-01,1.853041419278477764e-01,1.846408814739309290e-01,1.827826300720613584e-01,1.802676679122777181e-01,1.775910535971889637e-01,1.744491519332636575e-01,1.705345797133057395e-01,1.668891057516252441e-01,1.629486770539993745e-01,1.590158361620689076e-01,1.552859374409188142e-01,1.517495356022647013e-01,1.482368292043433899e-01,1.446896812341526561e-01,1.413388711538533793e-01,1.379896277018930195e-01,1.347582407613465150e-01,1.315770057659949588e-01,1.284752832315651239e-01,1.253505413849404226e-01,1.223337004758894703e-01,1.193016145850043230e-01,1.162820391327391706e-01,1.132544221086213276e-01,1.102140811489009109e-01,1.072232400370554950e-01,1.042098492099104712e-01,1.011927644184713454e-01,9.814548802258211968e-02,9.500004356816901807e-02,9.176784679243882303e-02,8.848291976788312529e-02,8.508507358164940637e-02,8.155335368669316964e-02,7.792953424307290378e-02,7.416675243562070863e-02,7.027735672763564534e-02,6.616366468859585792e-02,6.178831124585742324e-02,5.717160418058934990e-02,5.204905020249119690e-02,4.628768358452022003e-02,3.869222179254679789e-02,3.067553878006881729e-02,2.074223554270422654e-02,1.219093311468883237e-02,7.034605355122685796e-03,4.303817961301007258e-03,1.789925856904963372e-03,nan
nan,2.724210286649189541e-03,5.578848663559707148e-03,9.021410136845570138e-03,1.431977742064957648e-02,2.383733056685159030e-02,3.447165828082866812e-02,4.212885558149576798e-02,4.849103496041310551e-02,5.425437366035380099e-02,5.953950507231041411e-02,6.415104186407014075e-02,6.854639243828640482e-02,7.259688214187723365e-02,7.632512756048653868e-02,7.987791289273807327e-02,8.320665866033721825e-02,8.645173455598303969e-02,8.958734599116731367e-02,9.268517421577283921e-02,9.576488972484774320e-02,9.882607784037515664e-02,1.018771404880296078e-01,1.048895472416572494e-01,1.078671147494679183e-01,1.108168833498260480e-01,1.137294955701993737e-01,1.166101391733808668e-01,1.194948447229646910e-01,1.224030118532983546e-01,1.252809175066687264e-01,1.282653166105296727e-01,1.312929621722330742e-01,1.343692915127272791e-01,1.375390135469073127e-01,1.407223664529804186e-01,1.439990577678798012e-01,1.472924734679572079e-01,1.506989565142793364e-01,1.540332542936665994e-01,1.575423937063780699e-01,1.608095493171035617e-01,1.642102222541340917e-01,1.673650437792548740e-01,1.704364465023081587e-01,1.730517762208253485e-01,1.751634758824545113e-01,1.771860230543575998e-01,1.783010696434039755e-01,1.789039881594417791e-01,1.790208099717341406e-01,1.782012118800660461e-01,1.766959250511773716e-01,1.749132594199112045e-01,1.725583396932985625e-01,1.696862278966828619e-01,1.664194655211680141e-01,1.631869688646196692e-01,1.595653044488378192e-01,1.562201696775536441e-01,1.528217874038009239e-01,1.495085648307137305e-01,1.461494279215877767e-01,1.429015728846870781e-01,1.396309970654290022e-01,1.364845757845240815e-01,1.333771248228313999e-01,1.302739708040669131e-01,1.272376318148145669e-01,1.242570503909030399e-01,1.212557038059501463e-01,1.182824133014157009e-01,1.153184664018678529e-01,1.123439436061690749e-01,1.093784738662894329e-01,1.063817832852021472e-01,1.034459293848253997e-01,1.004357369840222780e-01,9.737232995194317065e-02,9.428199585848115460e-02,9.109390805667988422e-02,8.780358633305150595e-02,8.442751417442642681e-02,8.094979501372244479e-02,7.732623331181842641e-02,7.358780072750147061e-02,6.968159626433075016e-02,6.554824900807647292e-02,6.120064627046615385e-02,5.640338302505894241e-02,5.107110143188102469e-02,4.502482637205338506e-02,3.777498176675193886e-02,2.847518925739751447e-02,1.890690537540396995e-02,1.142004659604931027e-02,6.943063633746435724e-03,3.919245183824880685e-03,1.910970016222729006e-03,nan
nan,2.740462717885561259e-03,5.568368841252683589e-03,9.021305292632068179e-03,1.430703494146903614e-02,2.257292686143464941e-02,3.367254013328879747e-02,4.102151282848848918e-02,4.747936819692487320e-02,5.323848934482438428e-02,5.854903699739302109e-02,6.335672728945310195e-02,6.762979335112456747e-02,7.165784972254043983e-02,7.544424038391847609e-02,7.896048147562803599e-02,8.237106630172293109e-02,8.563975721473628122e-02,8.878946531330485226e-02,9.188346847377160120e-02,9.493180214660834615e-02,9.799378454647854342e-02,1.009791960152354312e-01,1.039428874947355974e-01,1.068742635143042352e-01,1.097703270085148147e-01,1.126425065168492334e-01,1.154996176908385103e-01,1.183148162522135588e-01,1.211783648987303924e-01,1.240453145760149478e-01,1.269236044332062996e-01,1.298449991024094308e-01,1.328287222251850475e-01,1.358058533577390647e-01,1.388339932001325105e-01,1.419649224257805153e-01,1.450372033973238717e-01,1.481042661245878245e-01,1.512509495893127331e-01,1.543921703672512524e-01,1.574567386226785048e-01,1.604854864994792463e-01,1.633675489289781457e-01,1.657876926913794957e-01,1.681158439078500044e-01,1.699809166566522145e-01,1.715256034212573888e-01,1.725839080409207471e-01,1.730786497502311838e-01,1.730038817339557278e-01,1.725295990085753406e-01,1.712405918598577104e-01,1.695821419471355007e-01,1.676172595127869980e-01,1.651879956837855601e-01,1.624208991461482676e-01,1.595056638063785115e-01,1.564366544131982339e-01,1.533815034111955244e-01,1.502540916859444187e-01,1.471261464294839616e-01,1.439848111502317340e-01,1.409136587328239099e-01,1.378091779119936522e-01,1.348168904220012343e-01,1.318102018323158986e-01,1.288675144463715949e-01,1.259124123262388428e-01,1.229856969869600608e-01,1.200816777200120755e-01,1.171661547614219895e-01,1.142357864043965221e-01,1.113373326046268458e-01,1.084336632484182300e-01,1.055070146219309890e-01,1.025548305917078074e-01,9.954414413222717473e-02,9.652910712004579563e-02,9.344205365626676030e-02,9.026993950858056004e-02,8.702351113085643464e-02,8.368211762225612194e-02,8.019596759609504133e-02,7.657833246081523215e-02,7.283541039791861793e-02,6.893987938104272073e-02,6.481274586793739356e-02,6.031090176397510549e-02,5.549729111466075032e-02,5.013326408279664831e-02,4.389566451292586241e-02,3.577641553911151129e-02,2.675929384462585534e-02,1.669694838593797220e-02,1.067273421032962494e-02,6.224641713240993551e-03,3.529611403746075841e-03,1.453905261010356251e-03,nan
nan,2.380965329807816118e-03,5.220217730691518662e-03,8.547834137684333367e-03,1.393587932103780049e-02,2.079837167857018915e-02,3.198677755336555573e-02,3.991289261229893914e-02,4.638351552849184767e-02,5.200167520929963039e-02,5.736842636855536692e-02,6.232701251794087877e-02,6.667965193613542563e-02,7.065999928214719561e-02,7.443243602537089054e-02,7.804072040734716387e-02,8.142139420886825019e-02,8.470718167071367155e-02,8.787940003037082726e-02,9.095215816294627276e-02,9.402310475107229781e-02,9.700990881738127958e-02,9.999328861041814620e-02,1.029183928150751021e-01,1.057865517516173165e-01,1.086515733280470075e-01,1.114788456695162133e-01,1.142832640407041717e-01,1.170754761269350575e-01,1.198484863948373613e-01,1.226379229737471904e-01,1.254532201248636514e-01,1.283007242066030174e-01,1.311258121500838425e-01,1.340038067022197021e-01,1.368762860433592743e-01,1.397748573904021296e-01,1.426952581309726686e-01,1.455945476101452862e-01,1.484703845524314447e-01,1.513542096588792463e-01,1.540845713368159675e-01,1.567295364453369366e-01,1.592215681487749446e-01,1.614105575534320602e-01,1.635371497872757096e-01,1.651441954414418212e-01,1.664697458895897098e-01,1.672450250739734301e-01,1.675447881048267862e-01,1.676505131012782646e-01,1.671720822359382685e-01,1.660552264117705623e-01,1.647012720582088363e-01,1.629608121285154865e-01,1.608601238036166114e-01,1.584301739471978276e-01,1.559012016391205235e-01,1.531691976542196298e-01,1.503194797672193217e-01,1.475170336032935181e-01,1.445693847889282790e-01,1.417360139375398453e-01,1.388189029273484143e-01,1.359464808845575468e-01,1.330345153817970028e-01,1.301583992718600147e-01,1.273021462640462897e-01,1.244625371101295563e-01,1.216193009629141786e-01,1.187797168330820829e-01,1.159332268999206245e-01,1.130762429474609088e-01,1.102393434768817876e-01,1.073596179483874563e-01,1.044721132461105262e-01,1.015232825961892432e-01,9.858653357741034573e-02,9.558989848930131428e-02,9.251424706983688018e-02,8.936915580288695704e-02,8.614784633237214384e-02,8.280362266742193056e-02,7.935065198665409991e-02,7.575924965933487909e-02,7.202665000993774269e-02,6.804918550019199708e-02,6.395273054033683013e-02,5.945334197663044995e-02,5.433681742644203005e-02,4.877477583259649113e-02,4.228896096063303883e-02,3.419042400347165056e-02,2.433285220733163307e-02,1.531435464937052834e-02,9.335209075207344387e-03,6.193329245130883495e-03,3.344457350106294982e-03,1.415118237585020382e-03,nan
nan,2.163183270138118418e-03,4.285145302506464075e-03,7.964324835149616186e-03,1.251345916553061460e-02,1.880282498077130715e-02,2.914360419314732456e-02,3.742469030596765056e-02,4.458600641979243440e-02,5.079437833126998481e-02,5.630672129024744121e-02,6.103288198842636569e-02,6.553325480273827774e-02,6.956011407035683769e-02,7.335613052686637547e-02,7.695333293308848077e-02,8.041212215597251523e-02,8.368031749901218286e-02,8.685566714485767892e-02,8.996365438566628070e-02,9.298109619817593319e-02,9.596480086217082373e-02,9.890304155932495844e-02,1.018026663053223646e-01,1.046258567228780245e-01,1.074459806489908159e-01,1.102249632417597047e-01,1.129825032217873781e-01,1.157257566601313098e-01,1.184385111273640323e-01,1.211378995906945422e-01,1.238673463120769092e-01,1.266058420289627728e-01,1.292785134805631841e-01,1.320953687993657033e-01,1.348160081463755378e-01,1.375736947430374890e-01,1.402841004687752080e-01,1.430161765736468193e-01,1.456181195973222375e-01,1.481843486350068462e-01,1.507442793193667363e-01,1.531390382808011652e-01,1.553087794712889325e-01,1.572883569061340747e-01,1.591083668521676708e-01,1.604446400481811252e-01,1.616186625664901289e-01,1.622551998972844023e-01,1.627423637862587535e-01,1.626667543893327295e-01,1.620991857352967469e-01,1.613042504838025359e-01,1.601619695317552383e-01,1.585958689524110676e-01,1.566814740579102194e-01,1.546503864830800212e-01,1.523293120091013808e-01,1.499685758280581982e-01,1.473690981869679451e-01,1.447715861289738948e-01,1.420619113692919988e-01,1.393896590383335021e-01,1.366165926342274572e-01,1.337984520483925521e-01,1.311387391100344857e-01,1.284015510878887267e-01,1.256488347319699161e-01,1.229013854802069039e-01,1.200906765121102365e-01,1.173627734209325424e-01,1.145784749892016924e-01,1.118004210168079549e-01,1.090071559182733407e-01,1.061876574369322729e-01,1.033329646739946373e-01,1.004368073479782464e-01,9.751339420356923415e-02,9.453934974191065266e-02,9.150158679644962434e-02,8.836294711926581669e-02,8.515375999491217596e-02,8.183161741351779872e-02,7.837918013676098417e-02,7.480709747337897786e-02,7.105080410260324053e-02,6.709395939811971243e-02,6.289628493217759575e-02,5.836586267216181678e-02,5.316656913209971691e-02,4.734608448962396299e-02,4.046994377150398697e-02,3.224512888613265127e-02,2.209320423724800420e-02,1.428563775310930616e-02,8.705847113279575888e-03,5.640739304913292181e-03,3.177530755426671329e-03,1.351014489518294814e-03,nan
nan,1.388825723661671384e-03,3.633565661140645327e-03,6.680699884935593566e-03,1.034561522879295752e-02,1.671789265669284402e-02,2.587006518364339674e-02,3.561535273899358450e-02,4.305400395180156853e-02,4.942245687405309729e-02,5.485131335612028480e-02,5.981469360636892246e-02,6.428033167562156869e-02,6.835375522739621512e-02,7.221241065007796833e-02,7.582381232029747342e-02,7.925093530796302466e-02,8.256232671166786885e-02,8.573952653962646497e-02,8.884355090411411027e-02,9.185338206810073070e-02,9.480830523236312424e-02,9.770583647121190707e-02,1.005529863672663393e-01,1.033519719050083885e-01,1.061324104976350824e-01,1.088622331615995975e-01,1.115602026155548404e-01,1.142580521330930354e-01,1.169074448256589988e-01,1.195521868114279157e-01,1.221601510738920815e-01,1.248273347420454787e-01,1.274447708257464840e-01,1.300632020583725179e-01,1.326968499551633429e-01,1.352920770579700283e-01,1.378082758452097434e-01,1.403373238267769385e-01,1.428142199555221814e-01,1.450859639143359248e-01,1.474887783745315595e-01,1.495545755744478733e-01,1.515183351926132072e-01,1.533389124135347836e-01,1.547987694678272519e-01,1.561022294933398780e-01,1.570690200646080725e-01,1.577295958358179984e-01,1.580582987021254548e-01,1.580349259721047783e-01,1.575726660418376723e-01,1.567875870161369312e-01,1.558203720559837857e-01,1.544164097890180776e-01,1.527846707604260112e-01,1.509417811568559142e-01,1.489252921404801977e-01,1.466925512619636496e-01,1.443742913833008235e-01,1.419773740592713829e-01,1.394389785042346175e-01,1.369319234478335034e-01,1.343181579225672384e-01,1.317864512281138045e-01,1.291758115564989318e-01,1.265346884865438670e-01,1.239066010025262898e-01,1.212310552792184026e-01,1.185485270950144415e-01,1.158597841748210122e-01,1.131502888506439597e-01,1.104411893447166948e-01,1.076796495527781311e-01,1.049065968445018898e-01,1.020944431329030844e-01,9.924830983070953572e-02,9.633690062044339419e-02,9.339503165501863990e-02,9.036209041627456251e-02,8.726457071573685831e-02,8.404698316669467761e-02,8.076116887087542162e-02,7.729572589557259787e-02,7.369135664863114832e-02,6.995484733524764964e-02,6.602066019264317409e-02,6.175780423227576754e-02,5.695315485713939307e-02,5.183386191330636994e-02,4.584723229577678666e-02,3.854679426924833424e-02,3.005541031582247349e-02,2.076615856729330939e-02,1.338107311988934872e-02,8.303715458613690134e-03,5.288991344441044962e-03,2.939892343256570676e-03,1.062619346748027317e-03,nan
nan,1.332585648737745878e-03,3.506856781612238509e-03,6.271888092947889605e-03,9.826613911823609340e-03,1.558992129803851018e-02,2.401801005632586000e-02,3.315364635452618808e-02,4.107650656156212887e-02,4.763331769552130862e-02,5.340421287581274823e-02,5.830796269863473824e-02,6.288253627639134313e-02,6.703770982956445967e-02,7.092537457068352758e-02,7.458830060542873119e-02,7.798873271176284816e-02,8.133821082195411001e-02,8.451551911468385692e-02,8.759249479064784571e-02,9.060972206817721752e-02,9.354021915123628128e-02,9.641796057458816571e-02,9.922681984504275188e-02,1.020015289537564707e-01,1.047220959194057471e-01,1.074207626387282677e-01,1.100690403868837125e-01,1.127079943858705913e-01,1.153136398180856781e-01,1.178775068249128810e-01,1.204412007668959061e-01,1.229317187369758785e-01,1.255025403067891177e-01,1.279915434729101686e-01,1.304851449282495579e-01,1.329233757125727056e-01,1.352769975591988916e-01,1.376987944592527602e-01,1.399297670440979302e-01,1.421110241974236077e-01,1.441666854736780856e-01,1.461120183702121766e-01,1.479520131460566601e-01,1.495221434596536447e-01,1.508852534078544694e-01,1.519444311270390091e-01,1.527929821773491015e-01,1.533591205057685536e-01,1.536343008838921553e-01,1.536229748377812843e-01,1.533296673647761565e-01,1.526028475246445637e-01,1.516573347487970846e-01,1.504964099836951785e-01,1.489911623449427513e-01,1.473471140328509732e-01,1.454991378478457387e-01,1.435159331761176327e-01,1.413553839377405252e-01,1.391908704132520380e-01,1.368613618150438527e-01,1.344963245145175956e-01,1.320772861510436935e-01,1.295991954058282047e-01,1.270947718310621588e-01,1.245910986025962897e-01,1.220350599191922653e-01,1.194851675416310766e-01,1.168678534750972053e-01,1.142779628693420813e-01,1.116395384874142166e-01,1.089658923712628485e-01,1.062703023942236924e-01,1.035478453420846517e-01,1.007736665390217695e-01,9.795236665139742116e-02,9.510291651161718873e-02,9.213286374927327771e-02,8.913915646606207499e-02,8.605526964563584014e-02,8.286163230818936742e-02,7.955416256048888912e-02,7.612490514396770547e-02,7.251862018216555239e-02,6.873849964149998659e-02,6.468540775560858991e-02,6.035642453780810240e-02,5.538826508705492480e-02,5.004024262798405231e-02,4.379757755402232527e-02,3.640686602004379602e-02,2.772509407943610227e-02,1.870530434784408585e-02,1.192943456592591989e-02,7.639464114803108316e-03,5.117627043643083531e-03,2.651279821735396183e-03,1.051711514020136446e-03,nan
nan,1.244633046445680182e-03,3.163368644727640368e-03,5.760237561683360930e-03,8.700077756667720305e-03,1.336908396383754832e-02,2.122808195045997395e-02,3.042438503058767646e-02,3.858812434252112400e-02,4.572482502079446703e-02,5.141078534286160073e-02,5.676309338495365980e-02,6.136625478086051022e-02,6.555862229710726630e-02,6.949191045679979639e-02,7.320386763991640344e-02,7.665220304840217325e-02,7.997919070503953232e-02,8.317057296312733994e-02,8.628275326556146541e-02,8.927904758049790002e-02,9.219757232806463643e-02,9.503619511534458497e-02,9.783737752792340259e-02,1.005741150180441829e-01,1.032683626128701737e-01,1.058926083191284867e-01,1.085054862460251707e-01,1.110707931649772967e-01,1.136117116935346227e-01,1.160893010704499295e-01,1.185932784094257259e-01,1.210250326497267631e-01,1.234337513358294003e-01,1.258245050071579996e-01,1.281943300465078484e-01,1.305069221410724567e-01,1.327579758219716022e-01,1.349693396023097514e-01,1.370872230650824197e-01,1.391209494975236272e-01,1.410217950034890477e-01,1.427933476237920885e-01,1.444101264543067309e-01,1.459082446296231239e-01,1.470785738276013666e-01,1.480152513728160146e-01,1.488286050584320397e-01,1.493423403173698150e-01,1.495325259087817438e-01,1.495329924543085387e-01,1.492083599988354159e-01,1.485355886874952236e-01,1.477917821038321478e-01,1.466818026872984682e-01,1.452900502183770426e-01,1.438581313831394648e-01,1.421130905317204984e-01,1.403806667290400101e-01,1.384098211423120672e-01,1.363552999406808797e-01,1.341919585695665329e-01,1.320132717477315587e-01,1.297229937912338926e-01,1.273580083285154319e-01,1.250207148727195683e-01,1.225869993685874126e-01,1.201332993414779837e-01,1.176214477825124616e-01,1.151381756399656731e-01,1.125948955991117328e-01,1.100149283597956912e-01,1.074183030471525246e-01,1.047591904695483467e-01,1.020975415633920969e-01,9.936709512268759870e-02,9.658735475065813314e-02,9.373545537869217015e-02,9.083510991766222120e-02,8.780972151732646669e-02,8.475372290244329032e-02,8.153525818557805227e-02,7.824416562656087704e-02,7.476942230414015955e-02,7.119478180795317523e-02,6.743469254803546864e-02,6.337604111319784794e-02,5.888931180188682057e-02,5.399645509371256424e-02,4.837086531090824953e-02,4.174453362701518316e-02,3.388846070710030411e-02,2.448911763039315903e-02,1.527676833679446344e-02,9.873120869908026676e-03,6.710733641127807070e-03,4.116021474377401165e-03,1.977546955647941588e-03,8.366719859171030437e-04,nan
nan,8.530891916656548274e-04,2.626837442990529164e-03,4.942704978707628850e-03,7.426670794477216453e-03,1.157519798606869259e-02,1.847339503165242383e-02,2.736095587141306254e-02,3.583476605589615283e-02,4.331920823645336871e-02,4.933669470828526415e-02,5.493784088093152385e-02,5.969096572315520793e-02,6.392468241726367850e-02,6.796384425449214506e-02,7.166861246047698253e-02,7.517617667377217427e-02,7.853598515918377987e-02,8.175414425250097927e-02,8.486172538928651865e-02,8.784555627233361919e-02,9.074819521141080925e-02,9.359207755316631405e-02,9.632309271444239318e-02,9.902838732538621347e-02,1.017090219506401882e-01,1.042987028490947460e-01,1.068516927365585067e-01,1.093590777299680711e-01,1.118289009709894782e-01,1.142703638803296978e-01,1.166760097230640641e-01,1.190408889293970984e-01,1.213631881887790864e-01,1.236508171757081803e-01,1.258987830182616841e-01,1.280988449764687287e-01,1.302036860580405297e-01,1.322706978425851332e-01,1.342625940264172146e-01,1.361254175099523012e-01,1.378625544919943602e-01,1.395360472232337889e-01,1.409810482405961241e-01,1.423207776426094195e-01,1.434350740540062674e-01,1.443408090785607278e-01,1.449935255638349907e-01,1.454131065379069276e-01,1.456810614016070815e-01,1.455877510310972234e-01,1.453274228701295911e-01,1.447849171834522664e-01,1.440246150790014668e-01,1.430364950580645111e-01,1.419012525857842599e-01,1.404608704609255909e-01,1.389536436837563727e-01,1.373526914811695199e-01,1.354844913806334261e-01,1.335903756284271826e-01,1.315391484151203216e-01,1.294779727531074065e-01,1.273103865877769914e-01,1.251195170996360073e-01,1.228505292395230819e-01,1.205316965160637965e-01,1.181634342385132763e-01,1.157543334832732973e-01,1.133262891269212341e-01,1.108472733565670082e-01,1.083304011564220487e-01,1.057950338341604180e-01,1.032015374933216156e-01,1.005552413471329370e-01,9.786113846803017047e-02,9.510692740524200051e-02,9.228415764764451301e-02,8.939285680047594218e-02,8.639538856123579746e-02,8.333818908362256028e-02,8.013403027929236200e-02,7.683732611925329914e-02,7.337982632114024850e-02,6.975785341633169989e-02,6.591722018078741141e-02,6.174973486942200718e-02,5.724890694858877915e-02,5.221174518888460625e-02,4.629155176611861322e-02,3.946353581485426143e-02,3.021318245704150349e-02,2.132577061172958796e-02,1.330285721213813471e-02,8.279841793879954420e-03,5.615462643834778778e-03,3.182474463495017346e-03,1.367963935054847821e-03,4.954619093178345632e-04,nan
nan,6.125777104500120798e-04,1.659437972374792382e-03,3.540889948578311141e-03,6.188478716690576538e-03,9.894491511903618502e-03,1.479256169267828373e-02,2.401759193710401724e-02,3.299838252838256658e-02,4.087907691060106707e-02,4.728491037372511280e-02,5.284018882387448574e-02,5.780790544861232061e-02,6.224021524430480706e-02,6.630110492014526513e-02,7.007396382925781819e-02,7.362390449617610411e-02,7.698671704899719137e-02,8.022011270207554667e-02,8.333182892943143127e-02,8.630914776595302595e-02,8.920247909082118509e-02,9.200646037529811028e-02,9.474232024773907024e-02,9.743385930542605711e-02,1.000481362284539183e-01,1.026028894967762062e-01,1.051036094005453614e-01,1.075750507776294801e-01,1.099841748409592368e-01,1.123689131650995043e-01,1.146993918329183987e-01,1.169679786765938090e-01,1.191905201541930831e-01,1.214073098431647790e-01,1.235042618577983087e-01,1.256154650680335605e-01,1.276327673313378264e-01,1.295745459469235528e-01,1.314327476575983811e-01,1.332022833125104389e-01,1.348060356661548442e-01,1.362889243457020838e-01,1.376507612989115725e-01,1.388797539869683073e-01,1.398543409180997288e-01,1.406921065483150990e-01,1.413611007707665235e-01,1.417313661511981349e-01,1.419081470326760686e-01,1.418578009179269073e-01,1.416479696250473874e-01,1.411331447524227789e-01,1.404679138273597361e-01,1.395764597238763893e-01,1.384549092432824646e-01,1.371786387964370468e-01,1.358037282905156518e-01,1.342617145985686156e-01,1.325839226828612882e-01,1.307614100588606887e-01,1.288994660509557300e-01,1.269353112833397357e-01,1.248922750423349937e-01,1.227987188348379638e-01,1.205937603422295168e-01,1.183857166735033661e-01,1.160788720783241246e-01,1.137911529465585880e-01,1.114250905716825113e-01,1.090180906791739235e-01,1.065639213481090197e-01,1.040660495869299151e-01,1.015309006667279024e-01,9.892576460980470610e-02,9.625501579336162572e-02,9.354977148948914745e-02,9.072965412789166240e-02,8.783935091422079289e-02,8.489722164603877297e-02,8.182376901663832025e-02,7.865252518632974421e-02,7.530999391069904958e-02,7.181980738742070602e-02,6.817166507699103095e-02,6.436622033364136630e-02,6.011741371376723431e-02,5.541506986081172481e-02,5.015783058211917278e-02,4.413585392444429462e-02,3.625932577863671957e-02,2.718003955644239522e-02,1.817243722882199916e-02,1.122032694747641078e-02,7.430353290989495305e-03,4.686948366470462292e-03,2.483322390093570774e-03,1.024669116263804110e-03,2.686048337334682014e-04,nan
nan,2.802957943018228953e-04,1.058951799904420945e-03,2.756908789484884340e-03,5.228765077869916914e-03,7.876314100934608473e-03,1.195222324927150415e-02,2.046037586309237127e-02,2.991562283240121675e-02,3.781480806806661321e-02,4.462338605322389157e-02,5.064623933671114075e-02,5.583266456918943577e-02,6.027166358335633856e-02,6.447877681078426071e-02,6.829557894528343054e-02,7.191797267508709401e-02,7.529069714670276470e-02,7.855466633414139033e-02,8.170427522326623171e-02,8.468353288347534036e-02,8.755431263884133619e-02,9.034186050185803729e-02,9.306405636509275381e-02,9.570125102349787138e-02,9.830634376367375360e-02,1.008260370024335884e-01,1.032852633013908172e-01,1.057074090462087890e-01,1.080532316370251961e-01,1.103743164148605349e-01,1.126398907278168271e-01,1.148452800887221903e-01,1.170005720802315963e-01,1.191143647367326475e-01,1.211398120644790882e-01,1.231198435712660133e-01,1.250286879604273205e-01,1.268755716101323261e-01,1.286049142445877536e-01,1.302378991597573088e-01,1.318009365326579252e-01,1.331450085860278187e-01,1.344166491943422637e-01,1.354790445474621241e-01,1.364030679876734597e-01,1.371976914764669320e-01,1.377757107461451136e-01,1.381357943950989597e-01,1.383199182924996218e-01,1.382754922367148698e-01,1.380549709961087779e-01,1.376027499565711243e-01,1.369819650333654049e-01,1.361567296810654859e-01,1.351830850079246971e-01,1.340037992973732162e-01,1.327023603989469502e-01,1.312832674174267689e-01,1.296920951991322180e-01,1.280181180358060389e-01,1.262207199085870757e-01,1.243896064994697986e-01,1.224415238350638480e-01,1.204215771730602763e-01,1.183442057508018452e-01,1.161573239826510506e-01,1.140150999834963208e-01,1.117761380335624416e-01,1.094581281156577213e-01,1.071246696400013354e-01,1.047111335359510453e-01,1.022744415097649739e-01,9.975567310986585556e-02,9.718847680368858377e-02,9.458340533566061969e-02,9.187903906411477861e-02,8.910188420879933124e-02,8.623314179212732133e-02,8.327490147082380889e-02,8.021246191984091056e-02,7.699304171630705351e-02,7.365486051702128945e-02,7.016167899853313628e-02,6.654864145059262437e-02,6.253545440784408216e-02,5.820597373703051414e-02,5.337116168767737368e-02,4.780029980828849612e-02,4.148301043351579342e-02,3.333957986263157147e-02,2.349705284600507593e-02,1.487896716575781188e-02,9.537395234107990533e-03,6.637767212977332965e-03,3.920410694707512043e-03,1.749914173234225993e-03,7.634892990549379393e-04,1.920235370953957610e-04,nan
nan,1.670850955954611026e-04,6.774040001512316150e-04,1.737272741669693534e-03,3.925568147412936831e-03,6.572005632101969412e-03,1.058579714360547742e-02,1.710697847577771075e-02,2.604595573945324427e-02,3.423683342664742696e-02,4.203147058877004100e-02,4.821390807907136727e-02,5.342345518647721725e-02,5.824836463149202920e-02,6.249123463373798537e-02,6.644302800728542346e-02,7.010041030386628125e-02,7.351080520772146354e-02,7.680505133833105680e-02,7.994683291695144078e-02,8.295444127964252123e-02,8.582872903306051904e-02,8.860834416286972326e-02,9.130775988688737133e-02,9.394539912193959619e-02,9.649657375739943699e-02,9.898415215071643125e-02,1.014084730665692768e-01,1.037753698111391759e-01,1.060870174285268031e-01,1.083417283545495269e-01,1.105293480114009075e-01,1.126614132809971580e-01,1.147660809656314423e-01,1.167706270341123675e-01,1.187276144895537677e-01,1.206344923098718880e-01,1.224597010640592898e-01,1.241789942345894737e-01,1.258106877309231042e-01,1.273464389544938236e-01,1.287833822372921877e-01,1.300613410420230764e-01,1.312185432681731434e-01,1.322358265231339536e-01,1.331173258161891249e-01,1.338062296469006429e-01,1.342923869179559471e-01,1.346855295702046040e-01,1.348018476309799096e-01,1.347875682901666372e-01,1.345625372762568328e-01,1.341498155565515049e-01,1.335825328135242795e-01,1.328482935243481544e-01,1.319204991245394865e-01,1.308563478771822830e-01,1.296535871102129367e-01,1.282932420723528200e-01,1.268491752026977837e-01,1.252390178215727901e-01,1.235936560209829199e-01,1.218183874769968311e-01,1.199689842691776809e-01,1.180347183951620804e-01,1.160400595758837583e-01,1.139775017944595764e-01,1.118720070414330470e-01,1.096689252490839067e-01,1.074422613132162974e-01,1.051425686342654653e-01,1.028012661525737614e-01,1.004009896650757266e-01,9.792280276321146948e-02,9.541652541832636170e-02,9.281288634113635250e-02,9.012754357579963460e-02,8.736167250517913596e-02,8.450824813316187845e-02,8.156500586361417615e-02,7.850260686151246114e-02,7.524910159459226311e-02,7.188870192798788028e-02,6.835252149547189904e-02,6.458195965096465152e-02,6.054759182494635211e-02,5.612608283322052111e-02,5.108690776647486359e-02,4.537002534421920308e-02,3.800255023842889768e-02,2.917961812818909914e-02,2.010567587842814613e-02,1.279576631400918679e-02,8.054709407665302731e-03,5.033213285832741947e-03,2.723701167231477177e-03,1.245815153206716354e-03,5.503224952182703697e-04,1.471592206526585304e-04,nan
nan,4.419060785157899598e-05,2.609607017507704712e-04,1.224714027920629361e-03,2.683948696664835865e-03,5.325102287400733381e-03,8.474964379602354519e-03,1.426525842308699540e-02,2.137485968015884197e-02,3.052327196284365315e-02,3.858091405862931061e-02,4.543708485256583302e-02,5.088365188797881744e-02,5.590506378117592740e-02,6.022914389495039045e-02,6.433764901964017513e-02,6.809195567391433668e-02,7.158819450689503372e-02,7.493911515863838080e-02,7.810084024705250816e-02,8.110685353404482878e-02,8.399876920452752083e-02,8.676781533626602705e-02,8.946852192624922540e-02,9.205085512083756305e-02,9.459686677009992994e-02,9.706197748219158594e-02,9.944692985516136174e-02,1.017737725209180433e-01,1.040420656595520826e-01,1.062242375005366946e-01,1.083723239381989972e-01,1.104454156137316956e-01,1.124618865435838833e-01,1.144199255622817962e-01,1.163162749514453781e-01,1.180954023195961572e-01,1.198363274689872582e-01,1.214681122441912120e-01,1.230280161263620498e-01,1.244858949732724623e-01,1.257995154481972300e-01,1.270368113648396857e-01,1.281188462749277834e-01,1.290799399709025297e-01,1.298779304363379405e-01,1.305444678015263149e-01,1.309862327599290444e-01,1.313220931227824517e-01,1.314318680194685451e-01,1.314283711693905454e-01,1.312202575171169949e-01,1.308654346051749406e-01,1.303273960095059636e-01,1.296191116935961618e-01,1.287463618928067488e-01,1.277833227212491762e-01,1.266334087511007955e-01,1.253531078626303197e-01,1.239846801064622972e-01,1.224881070547292061e-01,1.209240106463951581e-01,1.192514364364901658e-01,1.174612980977378651e-01,1.156034698741717076e-01,1.136904210722426423e-01,1.116862113056124872e-01,1.096595932924208233e-01,1.075350659974346895e-01,1.053562698647260015e-01,1.031106657260076609e-01,1.008208590155154349e-01,9.845894740926233735e-02,9.603455441382396929e-02,9.355010763415413932e-02,9.093679741863844312e-02,8.829633434486343357e-02,8.552940311055778899e-02,8.269883942747002781e-02,7.976042080194922779e-02,7.664551909423711340e-02,7.344765758434394776e-02,6.999849467739344133e-02,6.640600018086896539e-02,6.254605193115973794e-02,5.836879709306542346e-02,5.387519683330442566e-02,4.862339295460346711e-02,4.208628378052241270e-02,3.471670225853688146e-02,2.600964719042464512e-02,1.766935701003653075e-02,1.127281975725794722e-02,7.059464406265298850e-03,4.107709122055014719e-03,1.888300062249432913e-03,8.203152715185610616e-04,2.163899491064216198e-04,3.253688140295063377e-05,nan
nan,2.053828779695618048e-05,1.415023724517081483e-04,6.557173051856095281e-04,1.775399609063538523e-03,4.097375651212199071e-03,7.082670875074756692e-03,1.089513407050108316e-02,1.714910831739692443e-02,2.585353373057468207e-02,3.467535230865617657e-02,4.202023646488317610e-02,4.806087046197185519e-02,5.343325562454510208e-02,5.798828685832318336e-02,6.214637441363390913e-02,6.599842200183346497e-02,6.957020807981716126e-02,7.293258094008384096e-02,7.613485700758963748e-02,7.918006513508335509e-02,8.205373353342196308e-02,8.485431957633128575e-02,8.752060228802927000e-02,9.011417663374515774e-02,9.261469381006023904e-02,9.505927483778042753e-02,9.739639972045796568e-02,9.969881312330000633e-02,1.019044897231913133e-01,1.040658091836915849e-01,1.061510750136876319e-01,1.081821746493876746e-01,1.101399441466757723e-01,1.120091094918861385e-01,1.138272206200457159e-01,1.155557852443195033e-01,1.172329145685326729e-01,1.187685489870767552e-01,1.202688999181615731e-01,1.216222199271203841e-01,1.228873798926333194e-01,1.240280966147626757e-01,1.250671883286981201e-01,1.259484482721545673e-01,1.267157013118965503e-01,1.272953194475443806e-01,1.277512132120574573e-01,1.280195356259464790e-01,1.281777605507330997e-01,1.281359969253164088e-01,1.279245357606345335e-01,1.276301181582850663e-01,1.271357965290568770e-01,1.264346797517325593e-01,1.256323922371966328e-01,1.247090591464411757e-01,1.236473350255788556e-01,1.224706380265842276e-01,1.211684077402904181e-01,1.197689471085490454e-01,1.182546354261547472e-01,1.166358271659254792e-01,1.149380623520253886e-01,1.131585937903616390e-01,1.113072385794475067e-01,1.093730259486098283e-01,1.073835136322628669e-01,1.053346192870938114e-01,1.032074971142342701e-01,1.010270278159692281e-01,9.876107093736145870e-02,9.642903118199075418e-02,9.405227845090763372e-02,9.156554408762575259e-02,8.899768130593692372e-02,8.636502315890347281e-02,8.361333330700863875e-02,8.074197293486307103e-02,7.779945273072237655e-02,7.466735108609248717e-02,7.145131194241605144e-02,6.799091945297094930e-02,6.430694937504487230e-02,6.039539462979159889e-02,5.602523363436547055e-02,5.124334328186565257e-02,4.560932475764871430e-02,3.909814569384371247e-02,3.103984210891921891e-02,2.196944235946583085e-02,1.443426760558091590e-02,9.212007235065258412e-03,6.000854782071791786e-03,3.427319957839910971e-03,1.615686117152978800e-03,4.149513209189848459e-04,7.778371556383542281e-05,5.416898120912288712e-07,nan
nan,9.879078137197378359e-07,3.628975051743099005e-05,3.537005308448843040e-04,1.469276675187385214e-03,2.901261570372219972e-03,5.421279402051786163e-03,8.865604197000087269e-03,1.425253857976512342e-02,2.121586230424023570e-02,3.023180702673083572e-02,3.810836048368358014e-02,4.509087150236932434e-02,5.066977157060302550e-02,5.542325376145404436e-02,5.978962237309679018e-02,6.370109583552768795e-02,6.735192555863511732e-02,7.078175892057933516e-02,7.403148766499477451e-02,7.709162896261519127e-02,8.001861588934518210e-02,8.278930492783902195e-02,8.549601140433957247e-02,8.807643708761318802e-02,9.055540778569880211e-02,9.296570482536867241e-02,9.530659759913150120e-02,9.754200054943221176e-02,9.973524606115155566e-02,1.018634400867648726e-01,1.038880814667533792e-01,1.058609516499865455e-01,1.077544483906435341e-01,1.095784636830316044e-01,1.113380827798889500e-01,1.130029482518551676e-01,1.145508132126477896e-01,1.160835707110278170e-01,1.174503629401520699e-01,1.187872533234618361e-01,1.199810328369843304e-01,1.210628847426063470e-01,1.220470571042884533e-01,1.228475876707497000e-01,1.235710713873540145e-01,1.241309904498149319e-01,1.245563143040402665e-01,1.248227141758792430e-01,1.249309631768663609e-01,1.249119314988922369e-01,1.247461964171822646e-01,1.244443109634183059e-01,1.239734622106815343e-01,1.233308978268028155e-01,1.225767690743290173e-01,1.217231351226601005e-01,1.206909182385495077e-01,1.195891768537461208e-01,1.183529078745230168e-01,1.169994519136504652e-01,1.155307429878127123e-01,1.140252122464037732e-01,1.123913374125814213e-01,1.106708970820039772e-01,1.089097876892810568e-01,1.070382221173266785e-01,1.051084046168411362e-01,1.030771751787200180e-01,1.009910258332609306e-01,9.884714159864638194e-02,9.662304994960932425e-02,9.432281465265829334e-02,9.195391929004426146e-02,8.949819749777235267e-02,8.696555362404984058e-02,8.433687102956685666e-02,8.157259619971030107e-02,7.870393354736836267e-02,7.574462189148606361e-02,7.261305489256503209e-02,6.925718066146226148e-02,6.582354714113375360e-02,6.195231667618439353e-02,5.801646451494043427e-02,5.351854791488844937e-02,4.850526890285675879e-02,4.248541183133642402e-02,3.532933678303511876e-02,2.663010366872477566e-02,1.823496101946016357e-02,1.180415803400972595e-02,7.289717111876002631e-03,4.895492100267023403e-03,2.793379780801778615e-03,1.099125689110871940e-03,2.408926273616419217e-04,1.575324095618882918e-05,3.061195739766710524e-07,nan
nan,8.789232401562615764e-07,8.499056153051519244e-06,2.545202405683741364e-04,6.544746073894893400e-04,1.867757398772200862e-03,4.088925975844602372e-03,6.731464786997581190e-03,1.120296501306822581e-02,1.661003854248676789e-02,2.533522724385061514e-02,3.397801456995255820e-02,4.139710051887075110e-02,4.733179940752729742e-02,5.256947146148424621e-02,5.706293656636313855e-02,6.124529376101647826e-02,6.503096216353372594e-02,6.855438284549604522e-02,7.182187304776371795e-02,7.490407311286811920e-02,7.787988435036648227e-02,8.065158507926054043e-02,8.334255300343412776e-02,8.594045156320162526e-02,8.841521264510748823e-02,9.080886942229327019e-02,9.312528820715046396e-02,9.534761555676549150e-02,9.748639198006517348e-02,9.955918470635580220e-02,1.015421759010455977e-01,1.034898192461766453e-01,1.053476069034040563e-01,1.071145305073167159e-01,1.088162590162164989e-01,1.104535597462420748e-01,1.119573573439612002e-01,1.133799690414451361e-01,1.147118301240784011e-01,1.159712311743233970e-01,1.171040152414407898e-01,1.181138974821546589e-01,1.190314306348756457e-01,1.198343869626513070e-01,1.205034339052072773e-01,1.210135142652792040e-01,1.214223824820906406e-01,1.216685026571962813e-01,1.217779141394531306e-01,1.217624235128732108e-01,1.215721002543946883e-01,1.213112176497190275e-01,1.208530056737777691e-01,1.202730364516812755e-01,1.195549632015790176e-01,1.187265361373882749e-01,1.177762599685531070e-01,1.167091300795394665e-01,1.155448290060051286e-01,1.142322629796959366e-01,1.128425131204890963e-01,1.113816702828776400e-01,1.098144832675330418e-01,1.081535944248966652e-01,1.064279279196838623e-01,1.046276036295258477e-01,1.027534944016062074e-01,1.007810452138899193e-01,9.871304954103489460e-02,9.660833527766601869e-02,9.442213778092349574e-02,9.213815735725108813e-02,8.978743628033489244e-02,8.737195876480381707e-02,8.483873885008963445e-02,8.218036047274246414e-02,7.943645481844216483e-02,7.656397566423116252e-02,7.353853518107711373e-02,7.040275484452668264e-02,6.710652491515238516e-02,6.346663932122140195e-02,5.956615372650350682e-02,5.527468534672127370e-02,5.078177375245161718e-02,4.514271926725001161e-02,3.852843051071703356e-02,3.072860394092662151e-02,2.261592873865832243e-02,1.515297984905396821e-02,1.030785127887407816e-02,5.844681107556969415e-03,3.498279534581397350e-03,1.867806553579208799e-03,6.835197295689284360e-04,1.134163383071041728e-04,1.695292698156997850e-06,7.687868063556467063e-09,nan
nan,1.107659696847206168e-08,1.024867714129491379e-05,5.169127421865480596e-05,2.835239307016239937e-04,1.067167901374586024e-03,2.534154518874908585e-03,4.892766938333579022e-03,8.013127660365208793e-03,1.322195761807634824e-02,2.014514650838898635e-02,2.910588696101726672e-02,3.695798063513007492e-02,4.381977562779189317e-02,4.948933280815837055e-02,5.406325910022578840e-02,5.859040479584599892e-02,6.250071826969436084e-02,6.605175691554003581e-02,6.943996907208199731e-02,7.259070304797533846e-02,7.557521074013728857e-02,7.839784724641349345e-02,8.111402511874513110e-02,8.370843445755492274e-02,8.618704234672469600e-02,8.855800588659282213e-02,9.086147014155883384e-02,9.306384703982879814e-02,9.518218630502939259e-02,9.720333521116088227e-02,9.917083910459030538e-02,1.010625341959605489e-01,1.028810943305843995e-01,1.046097566581918464e-01,1.062501002263043365e-01,1.078558134361837090e-01,1.092798410428797162e-01,1.106381905928451592e-01,1.119289886061137773e-01,1.131483478349065708e-01,1.142218062168409431e-01,1.151832469770413675e-01,1.160628610791220733e-01,1.168297808086053990e-01,1.174563602221016106e-01,1.179490378887606272e-01,1.183247517604138627e-01,1.185566669069637452e-01,1.186884283729298800e-01,1.186745746585757266e-01,1.184921891668151706e-01,1.182070312876073448e-01,1.177684222530275965e-01,1.172545091221839086e-01,1.165743073972241167e-01,1.157918872005699318e-01,1.148655803700242006e-01,1.138477314569772969e-01,1.127306410903952394e-01,1.114768882701456798e-01,1.101361894693453775e-01,1.087234094763257219e-01,1.072025795946475457e-01,1.056224200180213568e-01,1.039250500981516306e-01,1.021634363759978126e-01,1.003323371996827085e-01,9.839826338805106321e-02,9.638137231831528373e-02,9.431861687591718002e-02,9.213797677963628252e-02,8.987293139711326206e-02,8.755495054319477333e-02,8.514261046806939626e-02,8.257563494779376900e-02,7.995688384546636995e-02,7.718109863302849427e-02,7.426959237655492152e-02,7.121121255090581692e-02,6.807186862625470847e-02,6.466520152151714051e-02,6.097841942785578451e-02,5.687279799358207349e-02,5.244090953625452772e-02,4.717661361811543302e-02,4.148625564775305918e-02,3.403324357284327056e-02,2.573782697981695164e-02,1.814886659960320003e-02,1.194640755040241378e-02,7.492714437542510181e-03,4.566988199823689837e-03,2.697412251089832246e-03,9.342788391825888449e-04,1.955358507879351832e-04,2.116457987166526150e-05,1.055885019102931124e-06,4.694585932376460001e-09,nan
nan,6.347695143391168734e-12,2.492995154290948717e-06,4.485981466002064447e-06,1.209093122820669222e-04,4.455396613899578881e-04,1.764556009919454604e-03,3.429302899298281200e-03,5.890167115434080669e-03,1.006471160040911875e-02,1.493941697634239979e-02,2.384553122435865286e-02,3.244995535825392907e-02,3.971396199197987226e-02,4.575748512860682710e-02,5.099908401838084554e-02,5.553936678876880695e-02,5.972833590583263158e-02,6.346395164957659152e-02,6.692103573339243383e-02,7.011115361765510312e-02,7.318696239859888431e-02,7.601454845160146578e-02,7.874873598657680662e-02,8.136601217714782563e-02,8.383359103648045652e-02,8.622596246375811846e-02,8.850015697835014739e-02,9.067337026908800501e-02,9.279128690658863809e-02,9.481328875417614765e-02,9.672809499161577618e-02,9.858804340719054538e-02,1.003574193697733263e-01,1.020484249539457960e-01,1.036388866600862074e-01,1.051594309695237650e-01,1.065776266946102807e-01,1.079159045415047924e-01,1.091832322236017394e-01,1.103064434395228388e-01,1.113568513899921564e-01,1.123059279985431647e-01,1.131165023883950183e-01,1.138259930320248969e-01,1.144308114275797705e-01,1.149092121141025297e-01,1.152635563070553010e-01,1.155159846280378044e-01,1.156179492317460644e-01,1.155809816595300271e-01,1.154186988543702969e-01,1.151538726117344452e-01,1.147789045976162492e-01,1.142515433550670700e-01,1.135907913275284176e-01,1.128476073548973502e-01,1.119703493166734065e-01,1.110051879637305450e-01,1.099119516339335106e-01,1.087046443066581186e-01,1.074260307363831268e-01,1.060321551282368546e-01,1.045793348797517813e-01,1.030390808136304043e-01,1.013783268255814413e-01,9.965487122789730423e-02,9.783717394580168647e-02,9.594641465639602851e-02,9.397984969343595174e-02,9.190858704059334805e-02,8.977738797715925645e-02,8.752761597097094559e-02,8.521690626088365694e-02,8.278126517822453900e-02,8.025119099878791351e-02,7.759479287359266619e-02,7.480112623172219255e-02,7.182393188964857067e-02,6.874065918486582660e-02,6.560588435276287766e-02,6.204779038902145938e-02,5.818909785863490836e-02,5.400592432204071730e-02,4.910052597405595298e-02,4.369109830835293806e-02,3.690569493210509727e-02,2.885252732615220528e-02,2.027818228222590807e-02,1.360009738401003927e-02,9.201476473556666202e-03,6.163009576648166392e-03,3.356444324951715803e-03,1.412928499099950531e-03,4.555394840532875009e-04,1.133704523777419223e-04,2.262437521532239699e-06,1.420485739249545420e-07,9.688848686463362462e-13,nan
nan,1.201834138969118483e-16,8.927035326401633949e-09,1.233194360343828018e-06,2.193876681175776659e-05,2.597745333868207648e-04,1.081989052664013556e-03,2.469568551691361975e-03,4.921482218659643804e-03,7.639688604105600127e-03,1.155635568321164083e-02,1.860911440183544638e-02,2.658600120627231320e-02,3.498192856336092282e-02,4.182213384771525655e-02,4.743935700442264425e-02,5.235045820026458518e-02,5.675271991115589387e-02,6.057258014368054055e-02,6.419649580237787867e-02,6.754062566570358250e-02,7.063041807244621606e-02,7.356345606238530455e-02,7.628651113460561961e-02,7.890396394412593772e-02,8.140222704138656840e-02,8.379472487474584619e-02,8.605155201874713222e-02,8.823833417931738199e-02,9.030599142405512647e-02,9.231032347315278053e-02,9.422382379626767501e-02,9.604066151616844071e-02,9.777434241577381835e-02,9.943654384082040165e-02,1.010124741178410890e-01,1.024931311222595093e-01,1.038733284910677568e-01,1.051577988174662581e-01,1.063603932143631359e-01,1.074817965578038492e-01,1.084799128743568902e-01,1.093940367480824571e-01,1.101842160704066959e-01,1.108620283985790045e-01,1.114357473761958539e-01,1.118990781336869494e-01,1.122137974105800184e-01,1.124647265947706365e-01,1.125570054011326426e-01,1.125247029490341888e-01,1.123968758997278827e-01,1.121496484791513204e-01,1.117335394863030601e-01,1.112508756885205174e-01,1.106448633239468515e-01,1.099069313200159159e-01,1.090835748466001537e-01,1.081224408039571372e-01,1.070448759285821394e-01,1.059104577741017822e-01,1.046658159347561151e-01,1.033415228925248647e-01,1.019116404860136993e-01,1.003920945945242227e-01,9.878498064487400976e-02,9.709106466990899409e-02,9.532557579629816202e-02,9.345675144624542019e-02,9.148819175999448050e-02,8.947299923014065404e-02,8.731826860878538765e-02,8.510416108227247811e-02,8.276622688834386898e-02,8.032279105296590005e-02,7.774888489109653411e-02,7.508042835533143555e-02,7.229189153505084786e-02,6.927589955990783033e-02,6.613909842456730526e-02,6.285712808118204542e-02,5.924672606437071665e-02,5.516530651841787536e-02,5.058616500400997529e-02,4.560562581670564442e-02,3.940924484056275434e-02,3.185674922043610358e-02,2.320379279132957911e-02,1.484011045351714929e-02,1.060185638154349103e-02,7.197495902773463558e-03,4.643940436492524464e-03,2.311297727886026977e-03,6.829328340845993751e-04,2.017274067206502840e-04,2.561392100231424271e-05,6.857656493444766884e-06,1.085418532095077071e-12,2.035566190370263209e-12,nan
nan,4.654592803679116318e-24,5.539615422797120651e-12,1.631804892077332915e-08,1.889414276224480436e-05,1.514888352717361328e-04,6.774937623680380968e-04,2.051691586812641466e-03,4.083139210536775900e-03,6.215588308591679309e-03,9.668836685080551413e-03,1.500156948469394402e-02,2.197608691083142302e-02,2.957497553144285141e-02,3.719288849098628669e-02,4.353728667253405765e-02,4.876369065870264641e-02,5.350310821171920528e-02,5.766158181967512286e-02,6.127667609382747571e-02,6.471427503839394246e-02,6.792672871241925425e-02,7.087873255772822456e-02,7.368715212146789706e-02,7.632988862268004493e-02,7.885960343367180714e-02,8.123985121680564470e-02,8.353540095927956821e-02,8.569052687200426344e-02,8.777460722376459468e-02,8.975952598812986238e-02,9.163927510886354932e-02,9.345036444865692515e-02,9.515457716726986870e-02,9.679030224724829989e-02,9.832635176793347309e-02,9.977329914033075675e-02,1.011124359478784290e-01,1.023756141274066445e-01,1.035444025599993045e-01,1.046190304054346043e-01,1.055963232154755738e-01,1.064368155227484042e-01,1.072376107652743549e-01,1.079066086889784171e-01,1.084506368812725025e-01,1.088815436899659012e-01,1.092265999391061337e-01,1.094217630389531792e-01,1.095072427306196250e-01,1.095018119366783504e-01,1.093645709118084841e-01,1.090689518944416292e-01,1.087406104000572526e-01,1.082341354155486601e-01,1.076598426497591687e-01,1.069549705934272205e-01,1.061481830248900554e-01,1.052246830711288939e-01,1.042245223381033786e-01,1.030844737705139680e-01,1.018969327443124129e-01,1.005937065847624518e-01,9.918956914131907276e-02,9.769675614152485699e-02,9.613189981612019208e-02,9.445381995034410338e-02,9.271817121107167603e-02,9.085660787874942634e-02,8.893586792071841995e-02,8.692630798822946481e-02,8.479537691569771773e-02,8.257576346456189931e-02,8.024100222213906286e-02,7.779158316032244724e-02,7.521096229542344191e-02,7.247885252194546934e-02,6.955977135080025631e-02,6.655244207061937478e-02,6.334626631036611999e-02,5.986165556128907050e-02,5.604994289170488891e-02,5.177401704612404759e-02,4.708779941673083003e-02,4.134551334292041469e-02,3.456530850746438593e-02,2.580304916472781970e-02,1.719670976550019895e-02,1.103941796311249703e-02,8.000579260254832292e-03,5.240311450425291784e-03,3.072544591716363377e-03,1.350979211318990934e-03,4.482270390248554396e-04,8.154057152859705399e-05,1.626944567986007792e-06,6.233411240860890732e-09,1.677675033867283683e-15,3.739905892199063696e-26,nan
nan,8.032675776729763024e-19,5.478948704250409185e-17,8.944011089790100550e-09,1.297262495296673139e-06,9.413568990616186824e-05,3.786497180580302444e-04,1.416751123320547298e-03,2.751621622649033129e-03,4.779912448008323891e-03,7.665847175501026844e-03,1.082336678782905293e-02,1.677213087600338409e-02,2.409224388828110769e-02,3.214317938101775296e-02,3.886896643395224005e-02,4.485959717829381826e-02,4.970965804856404546e-02,5.427915289989070774e-02,5.815467997137782619e-02,6.174661741580408925e-02,6.500235882241414687e-02,6.805029652071109547e-02,7.094992737950570061e-02,7.362532299072724329e-02,7.618158894108208179e-02,7.858645416121196048e-02,8.085969026564056306e-02,8.306677084791368182e-02,8.514698401221011681e-02,8.709873602286015426e-02,8.898889426373787770e-02,9.076089756669687703e-02,9.247382376877685828e-02,9.406157390419705999e-02,9.558833428338187055e-02,9.701655896223879139e-02,9.833824598164939146e-02,9.953661946992363452e-02,1.006948679431750593e-01,1.017412325479989665e-01,1.026716093189296852e-01,1.035369085329268662e-01,1.042831883663256631e-01,1.049068477916046127e-01,1.054391777604935521e-01,1.058864934163121357e-01,1.061916894900347963e-01,1.063826812913355735e-01,1.064832939128721873e-01,1.064715059970141320e-01,1.063238989433093751e-01,1.060732945090315654e-01,1.057287756549519647e-01,1.052681539903811275e-01,1.046931638513807633e-01,1.039994276018157415e-01,1.032132078813506326e-01,1.023238755697407631e-01,1.013349546095747566e-01,1.002469052363168800e-01,9.908500213663026801e-02,9.779076709720599392e-02,9.641888519843780370e-02,9.496849038093153894e-02,9.342160847203428986e-02,9.177192609825754466e-02,9.001637834909147207e-02,8.820415227508789091e-02,8.627145185789289461e-02,8.427894147025030702e-02,8.215076620374425764e-02,7.993071421142727839e-02,7.759116482149679139e-02,7.512717715250614992e-02,7.245619444934958686e-02,6.971573358433991174e-02,6.674427198563839814e-02,6.364350947842797868e-02,6.014734614884977709e-02,5.666494696447378632e-02,5.263318538880671499e-02,4.803958233451197102e-02,4.260970126535947033e-02,3.653122304909456330e-02,2.881588248603702412e-02,2.052641982926441816e-02,1.351513812091671360e-02,8.914841351239134737e-03,6.134410092241372389e-03,3.936760435531379276e-03,2.013720029024638689e-03,8.405891263234340112e-04,3.153191771633506615e-04,2.048012180448951952e-05,5.810891298607037424e-08,8.114633221415878076e-11,9.033349589314760682e-17,2.101980800223784243e-23,nan
nan,1.065729306553717635e-25,2.901176421551581690e-17,6.832311541019924192e-12,8.314641898294904819e-07,1.575277924526638442e-05,2.538412206645233675e-04,6.294414269031607233e-04,1.795614531849165033e-03,3.239131051181906064e-03,5.540835761655317840e-03,8.037196738993255402e-03,1.207297889285418105e-02,1.789510701025227510e-02,2.564439810171499287e-02,3.380831888358667991e-02,4.047160079006890954e-02,4.589118755122310878e-02,5.047919552392440834e-02,5.478170599256998452e-02,5.850599562848018964e-02,6.192154101522764909e-02,6.504943881386594795e-02,6.800758969632737794e-02,7.078514013621207968e-02,7.333549462920127548e-02,7.578221256992156984e-02,7.811334380302289992e-02,8.029665648746606155e-02,8.241059961806232459e-02,8.436786751295179132e-02,8.624948656930483959e-02,8.801769324522001892e-02,8.969371171479563476e-02,9.129607945012085946e-02,9.277947737436262332e-02,9.418628517987830129e-02,9.549234115126400968e-02,9.670205346866947438e-02,9.780630027417799854e-02,9.882357859368245956e-02,9.976578286771775606e-02,1.005668164981168011e-01,1.012892731997289408e-01,1.019152799103433399e-01,1.024153644792154955e-01,1.028535749935339666e-01,1.031619633088663446e-01,1.033395880624255192e-01,1.034351111435406895e-01,1.034178305462174347e-01,1.032809707292253465e-01,1.030480420836527577e-01,1.027227661174801021e-01,1.022655388354176964e-01,1.016937853337619435e-01,1.010286372803634453e-01,1.002707263432099094e-01,9.939329192792185907e-02,9.843816346506614745e-02,9.738374769387844743e-02,9.620874254751554666e-02,9.496497516296742436e-02,9.362049991525935033e-02,9.216503610737017405e-02,9.063026706589769055e-02,8.898333264268781795e-02,8.727077067986191428e-02,8.544890813145612773e-02,8.355005889666845820e-02,8.149632101046730415e-02,7.941936690290250789e-02,7.715111880778187381e-02,7.479143350901854004e-02,7.227281436293486738e-02,6.960919890862571346e-02,6.675207995290781404e-02,6.377318215758402686e-02,6.043712364365110001e-02,5.695917903133788235e-02,5.305267638008189651e-02,4.865716464094245464e-02,4.376295390330997570e-02,3.772738001606851244e-02,3.061887495419095620e-02,2.269660977390305923e-02,1.617428877853323635e-02,1.051344230112391184e-02,6.978122385122050367e-03,4.662450426898221909e-03,2.653696293851246380e-03,1.286296763732005730e-03,3.976433043990564584e-04,4.807016272453169022e-05,4.078031955696756326e-06,1.142580897146237594e-08,8.667467473095835258e-12,4.674753865250622356e-23,1.470315959745468392e-33,nan
nan,5.473733593492575552e-27,1.451339323779150270e-18,9.511568494968043414e-13,4.290504903397618239e-09,6.676101858300257598e-07,6.053369530978821851e-05,1.395569967659867695e-04,7.695403053104482366e-04,2.165410474395250938e-03,4.072772184504446988e-03,6.022684406406099249e-03,8.637342303144503533e-03,1.264770265226526115e-02,1.845997382988944294e-02,2.695196298891136544e-02,3.480476754063170641e-02,4.099383153738263286e-02,4.637258264292140608e-02,5.094836493736608352e-02,5.489661481981832070e-02,5.848448339291850012e-02,6.181022392983763492e-02,6.491310540025327369e-02,6.772710022374035799e-02,7.041461718506181189e-02,7.289523706977864281e-02,7.521890895324527537e-02,7.746066893744030235e-02,7.954552901645244034e-02,8.152454877148354595e-02,8.339940121243251403e-02,8.516981282536170705e-02,8.686450937554557328e-02,8.842984428905087402e-02,8.991761179782739588e-02,9.129850687773034823e-02,9.259793537116782491e-02,9.377247419333287204e-02,9.488132421929673654e-02,9.587327534866078860e-02,9.679621631575767438e-02,9.758946059071520185e-02,9.830085993069692663e-02,9.890892020066244239e-02,9.942290197642050797e-02,9.982017589242903055e-02,1.001099169928985760e-01,1.002860970448698763e-01,1.003754884234748235e-01,1.003602416929641750e-01,1.002360431146857300e-01,1.000149796654193624e-01,9.965756763473146429e-02,9.921364647329278252e-02,9.867133287370810635e-02,9.804136433281733509e-02,9.728334891271078755e-02,9.643339218384336387e-02,9.549581203134488439e-02,9.444461907089886366e-02,9.327603985337749870e-02,9.205463426221456580e-02,9.071692375251785845e-02,8.929086043801061356e-02,8.774209977856194109e-02,8.610654962649672006e-02,8.440044539667482248e-02,8.261925321800819844e-02,8.068041949329418649e-02,7.866990501886353404e-02,7.654075873671342678e-02,7.425443057176142614e-02,7.183167948018553961e-02,6.928332602230556636e-02,6.651565437062505193e-02,6.363144861576311428e-02,6.047336428216304460e-02,5.706418398116536173e-02,5.338373042384483846e-02,4.916103237392045050e-02,4.419662333713771096e-02,3.868679734941533194e-02,3.179398965973087576e-02,2.438950161213353923e-02,1.658498308192698362e-02,1.125718721633054906e-02,7.453207511499563079e-03,5.270268846214131581e-03,3.254737147473607713e-03,1.846289873880692942e-03,6.870690086306732204e-04,2.709679744873804883e-04,5.189019645326434769e-05,5.144525674646897115e-08,2.336317831579051605e-10,2.650338931850976706e-16,1.250299445387625738e-17,0.000000000000000000e+00,nan
nan,3.277024748940670653e-41,9.365902023828004801e-27,6.198326252554535817e-26,1.392529418311617896e-12,2.150530484409564689e-09,1.950038285335882269e-06,3.041321859721856844e-05,3.032216344861699865e-04,9.421608259511411862e-04,2.507783511803769912e-03,4.301403077957332080e-03,6.377858092751714433e-03,9.777230527586822789e-03,1.397815098869811638e-02,2.095828025837902925e-02,2.839458534776029622e-02,3.583337562236760948e-02,4.168622404217120492e-02,4.646126308813842976e-02,5.093751955375598606e-02,5.480917038508671679e-02,5.834951800745886291e-02,6.155303484126471020e-02,6.449923755993253183e-02,6.725950359238523635e-02,6.982809368629820657e-02,7.219752999610737354e-02,7.447001337748469785e-02,7.659084505856185443e-02,7.858470261837766091e-02,8.044565780604767680e-02,8.224480502304520879e-02,8.391758708159741120e-02,8.547636730896024382e-02,8.696796758196186083e-02,8.834392871327079177e-02,8.962401013488996426e-02,9.080742016844677023e-02,9.187736933428246322e-02,9.288109255026945343e-02,9.376560187973617677e-02,9.454464878049503862e-02,9.524471727755121075e-02,9.584719005591117724e-02,9.632117555103664186e-02,9.673923468878273257e-02,9.702297102488471880e-02,9.720040828403686550e-02,9.727875968840590803e-02,9.727742141722575675e-02,9.715984511523330369e-02,9.690660609211225462e-02,9.659000814530085965e-02,9.615794367095525930e-02,9.561076616619351709e-02,9.499745247301091822e-02,9.423557414329093718e-02,9.341430519456644932e-02,9.248823792491124574e-02,9.143165012364118382e-02,9.030423777628213133e-02,8.907714137666138121e-02,8.774928773659891601e-02,8.631568238602216336e-02,8.482701205901359287e-02,8.315058788290917435e-02,8.144155622555590557e-02,7.966686302483852455e-02,7.773654480039567105e-02,7.567758378616160075e-02,7.351751268435535724e-02,7.119895197150910571e-02,6.875933898676357681e-02,6.609584581619754040e-02,6.329578420993685339e-02,6.024609144564659069e-02,5.705612257432102208e-02,5.336572551569268574e-02,4.950585241560875177e-02,4.483466548281762887e-02,3.923309542444386455e-02,3.277478708140179470e-02,2.526953093523905472e-02,1.845669744161947470e-02,1.236994501709147952e-02,7.913557714252643024e-03,5.814368371464724745e-03,3.471162172387130037e-03,2.031260254185878952e-03,9.465960067701020180e-04,3.006807953399833269e-04,7.555789163961578727e-05,1.075893105838190368e-06,3.572590581945375012e-09,5.147887507481771456e-13,1.041651647749266635e-18,5.289741265151107810e-35,1.218200433021494169e-36,nan
nan,0.000000000000000000e+00,2.056026290118471146e-41,1.175418607608001624e-26,3.545626239062731517e-14,4.566894681496186820e-13,1.244484543785476627e-08,1.021050035306919732e-05,9.229005851122882003e-05,4.928628994494419543e-04,1.372633808294966822e-03,2.760816166793810672e-03,4.477507896184610391e-03,7.537102541939275091e-03,9.686348394215881299e-03,1.458136698730997868e-02,2.097361357375892785e-02,2.923839604275808510e-02,3.600415327080454947e-02,4.170395053242748062e-02,4.637714133064570199e-02,5.084654042070096969e-02,5.461125554455902031e-02,5.783712657364490500e-02,6.107743199097381837e-02,6.382545275363565862e-02,6.653680816975042489e-02,6.901026565039869443e-02,7.129855960776246282e-02,7.347928580811934063e-02,7.550441923578968262e-02,7.739465165317849227e-02,7.917956726563966929e-02,8.086916691531806367e-02,8.246604973864658794e-02,8.391467990993262127e-02,8.527697125575281478e-02,8.657749662236582933e-02,8.772609666251759974e-02,8.882015276084832822e-02,8.978629984463704083e-02,9.067984338130119504e-02,9.145978602183306438e-02,9.213982632211348278e-02,9.273926773551521840e-02,9.321126611800643891e-02,9.359298343247346441e-02,9.388747336533641297e-02,9.407027435883848210e-02,9.413940697107915645e-02,9.412639452618326574e-02,9.400457762095448810e-02,9.378229277528898900e-02,9.347004382648892162e-02,9.302672401360714827e-02,9.250792531714532863e-02,9.187415259599633621e-02,9.114999941438445274e-02,9.033964979374843607e-02,8.938288461508499261e-02,8.838507040402121540e-02,8.726922764257191711e-02,8.603293162045812237e-02,8.469792009449558789e-02,8.324717661843468453e-02,8.176958970939036953e-02,8.037892107301329581e-02,7.842105056556887555e-02,7.663474033563880128e-02,7.466564756255263113e-02,7.258888810892602517e-02,7.033593953938041543e-02,6.797144897292861643e-02,6.538953220655122078e-02,6.274852987272724891e-02,5.978226772135750156e-02,5.661273749883145162e-02,5.309551039505115699e-02,4.926045891871171090e-02,4.482383130943082272e-02,3.909527405983023729e-02,3.299663147027184773e-02,2.524643856511742807e-02,1.819480499498626544e-02,1.287997220438578949e-02,8.710519166150322568e-03,6.040093330789959511e-03,3.866583296648414859e-03,2.320933871571559566e-03,1.092418672084993509e-03,4.187640134471197375e-04,1.220838835739460678e-04,2.466918392923288207e-06,3.509215428757152863e-07,2.021143205092188715e-12,4.849483874771683565e-18,1.394289491709269873e-26,0.000000000000000000e+00,0.000000000000000000e+00,nan
nan,0.000000000000000000e+00,0.000000000000000000e+00,8.449944079141199372e-40,8.002767473288210412e-20,2.035596410099909885e-12,1.691635518114439624e-07,2.933638902252004416e-07,4.293163438610709452e-05,2.679198795634768829e-04,7.433260659745793064e-04,1.664785966846422157e-03,3.036236572722905876e-03,4.976177139838375285e-03,7.242116140441966915e-03,9.887157186969065814e-03,1.441205789994345725e-02,2.136000181693389899e-02,2.905052624162614283e-02,3.560710183350188074e-02,4.118231733415655266e-02,4.591930941604679267e-02,5.009157751499820899e-02,5.396553374171927930e-02,5.729146239448479339e-02,6.032831020645228193e-02,6.302421702016820781e-02,6.555249497980006335e-02,6.798137254153344133e-02,7.015703801393571859e-02,7.224115119114558892e-02,7.415533100759752472e-02,7.602266522206929666e-02,7.773403923114789726e-02,7.931550796796960068e-02,8.079203572030893565e-02,8.216344003042963529e-02,8.342837972647462741e-02,8.462112068675839427e-02,8.568030652531898050e-02,8.665094667994412136e-02,8.751519924028551556e-02,8.830872887225188483e-02,8.899126484942983251e-02,8.956723038138564297e-02,9.004940959278079360e-02,9.040999298347413005e-02,9.068918649949486710e-02,9.087164418789202280e-02,9.096459652207965207e-02,9.093504471753652285e-02,9.082246665182967804e-02,9.061797340873106732e-02,9.026207514129903908e-02,8.984771035429885144e-02,8.933189401840985200e-02,8.871631079213213034e-02,8.799199665040659257e-02,8.718920753407258251e-02,8.624013339642773446e-02,8.524236258574838243e-02,8.412929516953357445e-02,8.287739433687582591e-02,8.153683542944399620e-02,8.011773285392792543e-02,7.857388951399596477e-02,7.725835228486237216e-02,7.534958437587260804e-02,7.352329346554403733e-02,7.141406845483078136e-02,6.926991611899271928e-02,6.702560223695019914e-02,6.452499677989778637e-02,6.191264341235201696e-02,5.903116846249771565e-02,5.598558419865801161e-02,5.256616271789325834e-02,4.889510498880905720e-02,4.471402216593555606e-02,3.965934985333049306e-02,3.328801769449712955e-02,2.462669311565272856e-02,1.690122821687798163e-02,1.259171723987663125e-02,8.533579041110239682e-03,6.158605250630479200e-03,4.079009232260719965e-03,2.307608250618123098e-03,1.269263598804910246e-03,5.465056370714430978e-04,1.684577985215473638e-04,3.836806520401121967e-05,5.461841196927893142e-06,1.267446708650506558e-09,5.275540887278939276e-13,1.868457650707353888e-26,1.825711958772306880e-40,0.000000000000000000e+00,0.000000000000000000e+00,nan
nan,0.000000000000000000e+00,0.000000000000000000e+00,0.000000000000000000e+00,3.263350254826756569e-33,1.643512837685839693e-15,6.742249205240242390e-11,5.544705888105066268e-08,9.522649207110888878e-06,5.284513470721841565e-05,3.062777517068883404e-04,8.341339013494109391e-04,1.638399550476307568e-03,3.251878953081487143e-03,5.251004613448608839e-03,7.408924304396758559e-03,9.842662389415425539e-03,1.482980008700917132e-02,2.140068493780608594e-02,2.835505600315052846e-02,3.441803152705883578e-02,4.055647789529355507e-02,4.544491876185286633e-02,4.942980454955793468e-02,5.301848034342945826e-02,5.631228010286921937e-02,5.922590606714379924e-02,6.194612308321594679e-02,6.447590238238001814e-02,6.667976350904963878e-02,6.882542031710657537e-02,7.080452488119626242e-02,7.267304597206381001e-02,7.441586475738942719e-02,7.603687222182003991e-02,7.754350603371709671e-02,7.890087412721126514e-02,8.016623672206302231e-02,8.136845123010326419e-02,8.241937231076457149e-02,8.342115219587629971e-02,8.429902079277160065e-02,8.506876006361481501e-02,8.574694851918093774e-02,8.632137372037380907e-02,8.679812318009855199e-02,8.715927745193080556e-02,8.744000535569659838e-02,8.761747111470931382e-02,8.770502661164522595e-02,8.767249615089438286e-02,8.756958848736341727e-02,8.734888131080356666e-02,8.703071821102228989e-02,8.660626699649476290e-02,8.608740055085596643e-02,8.546004086515007758e-02,8.476332401976946485e-02,8.391463670589817403e-02,8.301021550465817467e-02,8.198723316355627233e-02,8.086188861069089351e-02,7.965300576275712030e-02,7.829651473103713122e-02,7.687261925481395086e-02,7.538093719372207513e-02,7.385194112917853326e-02,7.212929285902916487e-02,7.013167902245781571e-02,6.800937449932616119e-02,6.580791712139281990e-02,6.338086282720345466e-02,6.076090608855388292e-02,5.800463889994346423e-02,5.497778182942040376e-02,5.162846068077632522e-02,4.806154087185018908e-02,4.364994227597816800e-02,3.871031878919083818e-02,3.294230650337526961e-02,2.563438860801311309e-02,1.784376442237026184e-02,1.139129162290591739e-02,8.789967041713184215e-03,5.876679438361208548e-03,4.094559771359484318e-03,2.344811304570523780e-03,1.095014365454302727e-03,4.975431607635177628e-04,1.015299593110617773e-04,1.459609592590966874e-05,6.322153981673411142e-07,4.075031261767853991e-10,2.955173277387601293e-13,1.622225853622801144e-13,1.769943625684194365e-27,0.000000000000000000e+00,0.000000000000000000e+00,0.000000000000000000e+00,nan
