nan,0.000000000000000000e+00,0.000000000000000000e+00,0.000000000000000000e+00,0.000000000000000000e+00,0.000000000000000000e+00,0.000000000000000000e+00,0.000000000000000000e+00,0.000000000000000000e+00,0.000000000000000000e+00,0.000000000000000000e+00,0.000000000000000000e+00,0.000000000000000000e+00,0.000000000000000000e+00,0.000000000000000000e+00,0.000000000000000000e+00,0.000000000000000000e+00,0.000000000000000000e+00,0.000000000000000000e+00,0.000000000000000000e+00,0.000000000000000000e+00,0.000000000000000000e+00,0.000000000000000000e+00,0.000000000000000000e+00,0.000000000000000000e+00,0.000000000000000000e+00,0.000000000000000000e+00,0.000000000000000000e+00,0.000000000000000000e+00,0.000000000000000000e+00,0.000000000000000000e+00,0.000000000000000000e+00,0.000000000000000000e+00,0.000000000000000000e+00,0.000000000000000000e+00,0.000000000000000000e+00,0.000000000000000000e+00,0.000000000000000000e+00,0.000000000000000000e+00,0.000000000000000000e+00,0.000000000000000000e+00,0.000000000000000000e+00,0.000000000000000000e+00,0.000000000000000000e+00,0.000000000000000000e+00,4.376534470927048726e-02,2.635468322849751077e-01,2.646460323655011049e-01,2.651433137225491787e-01,2.639030661130764566e-01,2.641204978363682621e-01,2.643539639197849955e-01,2.629480509723317594e-01,2.622008259295398602e-01,1.751008993162240512e-01,0.000000000000000000e+00,0.000000000000000000e+00,0.000000000000000000e+00,0.000000000000000000e+00,0.000000000000000000e+00,0.000000000000000000e+00,0.000000000000000000e+00,0.000000000000000000e+00,0.000000000000000000e+00,0.000000000000000000e+00,0.000000000000000000e+00,0.000000000000000000e+00,0.000000000000000000e+00,0.000000000000000000e+00,0.000000000000000000e+00,0.000000000000000000e+00,0.000000000000000000e+00,0.000000000000000000e+00,0.000000000000000000e+00,0.000000000000000000e+00,0.000000000000000000e+00,0.000000000000000000e+00,0.000000000000000000e+00,0.000000000000000000e+00,0.000000000000000000e+00,0.000000000000000000e+00,0.000000000000000000e+00,0.000000000000000000e+00,0.000000000000000000e+00,0.000000000000000000e+00,0.000000000000000000e+00,0.000000000000000000e+00,0.000000000000000000e+00,0.000000000000000000e+00,0.000000000000000000e+00,0.000000000000000000e+00,0.000000000000000000e+00,0.000000000000000000e+00,0.000000000000000000e+00,0.000000000000000000e+00,0.000000000000000000e+00,0.000000000000000000e+00,0.000000000000000000e+00,0.000000000000000000e+00,nan
nan,0.000000000000000000e+00,0.000000000000000000e+00,0.000000000000000000e+00,0.000000000000000000e+00,0.000000000000000000e+00,0.000000000000000000e+00,0.000000000000000000e+00,0.000000000000000000e+00,0.000000000000000000e+00,0.000000000000000000e+00,0.000000000000000000e+00,0.000000000000000000e+00,0.000000000000000000e+00,0.000000000000000000e+00,0.000000000000000000e+00,0.000000000000000000e+00,0.000000000000000000e+00,0.000000000000000000e+00,0.000000000000000000e+00,0.000000000000000000e+00,0.000000000000000000e+00,0.000000000000000000e+00,0.000000000000000000e+00,0.000000000000000000e+00,0.000000000000000000e+00,0.000000000000000000e+00,0.000000000000000000e+00,0.000000000000000000e+00,0.000000000000000000e+00,0.000000000000000000e+00,0.000000000000000000e+00,0.000000000000000000e+00,0.000000000000000000e+00,0.000000000000000000e+00,0.000000000000000000e+00,0.000000000000000000e+00,0.000000000000000000e+00,0.000000000000000000e+00,0.000000000000000000e+00,0.000000000000000000e+00,0.000000000000000000e+00,0.000000000000000000e+00,0.000000000000000000e+00,0.000000000000000000e+00,1.945278950685178643e-01,2.567335602645894888e-01,2.642402374825453260e-01,2.652160233507679932e-01,2.661329678032757773e-01,2.671170409809894841e-01,2.691346508692173400e-01,2.693418764207067828e-01,2.677731797871474861e-01,9.491585915902216175e-02,0.000000000000000000e+00,0.000000000000000000e+00,0.000000000000000000e+00,0.000000000000000000e+00,0.000000000000000000e+00,0.000000000000000000e+00,0.000000000000000000e+00,0.000000000000000000e+00,0.000000000000000000e+00,0.000000000000000000e+00,0.000000000000000000e+00,0.000000000000000000e+00,0.000000000000000000e+00,0.000000000000000000e+00,0.000000000000000000e+00,0.000000000000000000e+00,0.000000000000000000e+00,0.000000000000000000e+00,0.000000000000000000e+00,0.000000000000000000e+00,0.000000000000000000e+00,0.000000000000000000e+00,0.000000000000000000e+00,0.000000000000000000e+00,0.000000000000000000e+00,0.000000000000000000e+00,0.000000000000000000e+00,0.000000000000000000e+00,0.000000000000000000e+00,0.000000000000000000e+00,0.000000000000000000e+00,0.000000000000000000e+00,0.000000000000000000e+00,0.000000000000000000e+00,0.000000000000000000e+00,0.000000000000000000e+00,0.000000000000000000e+00,0.000000000000000000e+00,0.000000000000000000e+00,0.000000000000000000e+00,0.000000000000000000e+00,0.000000000000000000e+00,0.000000000000000000e+00,0.000000000000000000e+00,nan
nan,0.000000000000000000e+00,0.000000000000000000e+00,0.000000000000000000e+00,0.000000000000000000e+00,0.000000000000000000e+00,0.000000000000000000e+00,0.000000000000000000e+00,0.000000000000000000e+00,0.000000000000000000e+00,0.000000000000000000e+00,0.000000000000000000e+00,0.000000000000000000e+00,0.000000000000000000e+00,0.000000000000000000e+00,0.000000000000000000e+00,0.000000000000000000e+00,0.000000000000000000e+00,0.000000000000000000e+00,0.000000000000000000e+00,0.000000000000000000e+00,0.000000000000000000e+00,0.000000000000000000e+00,0.000000000000000000e+00,0.000000000000000000e+00,0.000000000000000000e+00,0.000000000000000000e+00,0.000000000000000000e+00,0.000000000000000000e+00,0.000000000000000000e+00,0.000000000000000000e+00,0.000000000000000000e+00,0.000000000000000000e+00,0.000000000000000000e+00,0.000000000000000000e+00,0.000000000000000000e+00,0.000000000000000000e+00,0.000000000000000000e+00,0.000000000000000000e+00,0.000000000000000000e+00,0.000000000000000000e+00,0.000000000000000000e+00,0.000000000000000000e+00,0.000000000000000000e+00,0.000000000000000000e+00,1.158333391728609274e-01,2.654728518131489468e-01,2.662084110229765432e-01,2.683610686216379437e-01,2.701971360090207885e-01,2.733304266560862561e-01,2.744260241422408764e-01,2.744368690605347161e-01,2.756872029351620790e-01,1.979838141955528041e-01,0.000000000000000000e+00,0.000000000000000000e+00,0.000000000000000000e+00,0.000000000000000000e+00,0.000000000000000000e+00,0.000000000000000000e+00,0.000000000000000000e+00,0.000000000000000000e+00,0.000000000000000000e+00,0.000000000000000000e+00,0.000000000000000000e+00,0.000000000000000000e+00,0.000000000000000000e+00,0.000000000000000000e+00,0.000000000000000000e+00,0.000000000000000000e+00,0.000000000000000000e+00,0.000000000000000000e+00,0.000000000000000000e+00,0.000000000000000000e+00,0.000000000000000000e+00,0.000000000000000000e+00,0.000000000000000000e+00,0.000000000000000000e+00,0.000000000000000000e+00,0.000000000000000000e+00,0.000000000000000000e+00,0.000000000000000000e+00,0.000000000000000000e+00,0.000000000000000000e+00,0.000000000000000000e+00,0.000000000000000000e+00,0.000000000000000000e+00,0.000000000000000000e+00,0.000000000000000000e+00,0.000000000000000000e+00,0.000000000000000000e+00,0.000000000000000000e+00,0.000000000000000000e+00,0.000000000000000000e+00,0.000000000000000000e+00,0.000000000000000000e+00,0.000000000000000000e+00,0.000000000000000000e+00,nan
nan,0.000000000000000000e+00,0.000000000000000000e+00,0.000000000000000000e+00,0.000000000000000000e+00,0.000000000000000000e+00,0.000000000000000000e+00,0.000000000000000000e+00,0.000000000000000000e+00,0.000000000000000000e+00,0.000000000000000000e+00,0.000000000000000000e+00,0.000000000000000000e+00,0.000000000000000000e+00,0.000000000000000000e+00,0.000000000000000000e+00,0.000000000000000000e+00,0.000000000000000000e+00,0.000000000000000000e+00,0.000000000000000000e+00,0.000000000000000000e+00,0.000000000000000000e+00,0.000000000000000000e+00,0.000000000000000000e+00,0.000000000000000000e+00,0.000000000000000000e+00,0.000000000000000000e+00,0.000000000000000000e+00,0.000000000000000000e+00,0.000000000000000000e+00,0.000000000000000000e+00,0.000000000000000000e+00,0.000000000000000000e+00,0.000000000000000000e+00,0.000000000000000000e+00,0.000000000000000000e+00,0.000000000000000000e+00,0.000000000000000000e+00,0.000000000000000000e+00,0.000000000000000000e+00,0.000000000000000000e+00,0.000000000000000000e+00,0.000000000000000000e+00,0.000000000000000000e+00,0.000000000000000000e+00,1.679839302754509434e-01,2.722476589466773511e-01,2.696705382974134979e-01,2.718404266208337972e-01,2.741258559816409646e-01,2.773236511429937323e-01,2.795230625699479665e-01,2.810759766089692135e-01,2.839901792487377064e-01,1.706540215549439965e-01,0.000000000000000000e+00,0.000000000000000000e+00,0.000000000000000000e+00,0.000000000000000000e+00,0.000000000000000000e+00,0.000000000000000000e+00,0.000000000000000000e+00,0.000000000000000000e+00,0.000000000000000000e+00,0.000000000000000000e+00,0.000000000000000000e+00,0.000000000000000000e+00,0.000000000000000000e+00,0.000000000000000000e+00,0.000000000000000000e+00,0.000000000000000000e+00,0.000000000000000000e+00,0.000000000000000000e+00,0.000000000000000000e+00,0.000000000000000000e+00,0.000000000000000000e+00,0.000000000000000000e+00,0.000000000000000000e+00,0.000000000000000000e+00,0.000000000000000000e+00,0.000000000000000000e+00,0.000000000000000000e+00,0.000000000000000000e+00,0.000000000000000000e+00,0.000000000000000000e+00,0.000000000000000000e+00,0.000000000000000000e+00,0.000000000000000000e+00,0.000000000000000000e+00,0.000000000000000000e+00,0.000000000000000000e+00,0.000000000000000000e+00,0.000000000000000000e+00,0.000000000000000000e+00,0.000000000000000000e+00,0.000000000000000000e+00,0.000000000000000000e+00,0.000000000000000000e+00,0.000000000000000000e+00,nan
nan,0.000000000000000000e+00,0.000000000000000000e+00,0.000000000000000000e+00,0.000000000000000000e+00,0.000000000000000000e+00,0.000000000000000000e+00,0.000000000000000000e+00,0.000000000000000000e+00,0.000000000000000000e+00,0.000000000000000000e+00,0.000000000000000000e+00,0.000000000000000000e+00,0.000000000000000000e+00,0.000000000000000000e+00,0.000000000000000000e+00,0.000000000000000000e+00,0.000000000000000000e+00,0.000000000000000000e+00,0.000000000000000000e+00,0.000000000000000000e+00,0.000000000000000000e+00,0.000000000000000000e+00,0.000000000000000000e+00,0.000000000000000000e+00,0.000000000000000000e+00,0.000000000000000000e+00,0.000000000000000000e+00,0.000000000000000000e+00,0.000000000000000000e+00,0.000000000000000000e+00,0.000000000000000000e+00,0.000000000000000000e+00,0.000000000000000000e+00,0.000000000000000000e+00,0.000000000000000000e+00,0.000000000000000000e+00,0.000000000000000000e+00,0.000000000000000000e+00,0.000000000000000000e+00,0.000000000000000000e+00,0.000000000000000000e+00,0.000000000000000000e+00,0.000000000000000000e+00,0.000000000000000000e+00,9.878620082471992192e-02,2.322959499337819145e-01,2.726280346481498307e-01,2.736784941521240855e-01,2.771505124136712794e-01,2.792443953318216598e-01,2.817651764099650680e-01,2.875147231331649511e-01,2.940849669221164420e-01,1.249934015622331945e-01,0.000000000000000000e+00,0.000000000000000000e+00,0.000000000000000000e+00,0.000000000000000000e+00,0.000000000000000000e+00,0.000000000000000000e+00,0.000000000000000000e+00,0.000000000000000000e+00,0.000000000000000000e+00,0.000000000000000000e+00,0.000000000000000000e+00,0.000000000000000000e+00,0.000000000000000000e+00,0.000000000000000000e+00,0.000000000000000000e+00,0.000000000000000000e+00,0.000000000000000000e+00,0.000000000000000000e+00,0.000000000000000000e+00,0.000000000000000000e+00,0.000000000000000000e+00,0.000000000000000000e+00,0.000000000000000000e+00,0.000000000000000000e+00,0.000000000000000000e+00,0.000000000000000000e+00,0.000000000000000000e+00,0.000000000000000000e+00,0.000000000000000000e+00,0.000000000000000000e+00,0.000000000000000000e+00,0.000000000000000000e+00,0.000000000000000000e+00,0.000000000000000000e+00,0.000000000000000000e+00,0.000000000000000000e+00,0.000000000000000000e+00,0.000000000000000000e+00,0.000000000000000000e+00,0.000000000000000000e+00,0.000000000000000000e+00,0.000000000000000000e+00,0.000000000000000000e+00,0.000000000000000000e+00,nan
nan,0.000000000000000000e+00,0.000000000000000000e+00,0.000000000000000000e+00,0.000000000000000000e+00,0.000000000000000000e+00,0.000000000000000000e+00,0.000000000000000000e+00,0.000000000000000000e+00,0.000000000000000000e+00,0.000000000000000000e+00,0.000000000000000000e+00,0.000000000000000000e+00,0.000000000000000000e+00,0.000000000000000000e+00,0.000000000000000000e+00,0.000000000000000000e+00,0.000000000000000000e+00,0.000000000000000000e+00,0.000000000000000000e+00,0.000000000000000000e+00,0.000000000000000000e+00,0.000000000000000000e+00,0.000000000000000000e+00,0.000000000000000000e+00,0.000000000000000000e+00,0.000000000000000000e+00,0.000000000000000000e+00,0.000000000000000000e+00,0.000000000000000000e+00,0.000000000000000000e+00,0.000000000000000000e+00,0.000000000000000000e+00,0.000000000000000000e+00,0.000000000000000000e+00,0.000000000000000000e+00,0.000000000000000000e+00,0.000000000000000000e+00,0.000000000000000000e+00,0.000000000000000000e+00,0.000000000000000000e+00,0.000000000000000000e+00,0.000000000000000000e+00,0.000000000000000000e+00,0.000000000000000000e+00,1.561020838450623283e-01,2.759702588702253601e-01,2.804640126817310453e-01,2.806631689236084304e-01,2.821437982563535507e-01,2.834544456168962001e-01,2.822323416422060638e-01,2.804615943137677703e-01,2.768938699129845915e-01,1.556017842009495555e-01,0.000000000000000000e+00,0.000000000000000000e+00,0.000000000000000000e+00,0.000000000000000000e+00,0.000000000000000000e+00,0.000000000000000000e+00,0.000000000000000000e+00,0.000000000000000000e+00,0.000000000000000000e+00,0.000000000000000000e+00,0.000000000000000000e+00,0.000000000000000000e+00,0.000000000000000000e+00,0.000000000000000000e+00,0.000000000000000000e+00,0.000000000000000000e+00,0.000000000000000000e+00,0.000000000000000000e+00,0.000000000000000000e+00,0.000000000000000000e+00,0.000000000000000000e+00,0.000000000000000000e+00,0.000000000000000000e+00,0.000000000000000000e+00,0.000000000000000000e+00,0.000000000000000000e+00,0.000000000000000000e+00,0.000000000000000000e+00,0.000000000000000000e+00,0.000000000000000000e+00,0.000000000000000000e+00,0.000000000000000000e+00,0.000000000000000000e+00,0.000000000000000000e+00,0.000000000000000000e+00,0.000000000000000000e+00,0.000000000000000000e+00,0.000000000000000000e+00,0.000000000000000000e+00,0.000000000000000000e+00,0.000000000000000000e+00,0.000000000000000000e+00,0.000000000000000000e+00,0.000000000000000000e+00,nan
nan,0.000000000000000000e+00,0.000000000000000000e+00,0.000000000000000000e+00,0.000000000000000000e+00,0.000000000000000000e+00,0.000000000000000000e+00,0.000000000000000000e+00,0.000000000000000000e+00,0.000000000000000000e+00,0.000000000000000000e+00,0.000000000000000000e+00,0.000000000000000000e+00,0.000000000000000000e+00,0.000000000000000000e+00,0.000000000000000000e+00,0.000000000000000000e+00,5.460521513370792529e-02,4.689913415230780730e-02,0.000000000000000000e+00,0.000000000000000000e+00,0.000000000000000000e+00,0.000000000000000000e+00,0.000000000000000000e+00,0.000000000000000000e+00,0.000000000000000000e+00,0.000000000000000000e+00,0.000000000000000000e+00,0.000000000000000000e+00,0.000000000000000000e+00,0.000000000000000000e+00,0.000000000000000000e+00,3.930619137793816414e-02,0.000000000000000000e+00,0.000000000000000000e+00,0.000000000000000000e+00,0.000000000000000000e+00,0.000000000000000000e+00,0.000000000000000000e+00,0.000000000000000000e+00,0.000000000000000000e+00,0.000000000000000000e+00,0.000000000000000000e+00,0.000000000000000000e+00,0.000000000000000000e+00,1.486113836476797567e-01,2.846146637312765293e-01,2.888836445965545785e-01,2.898897679099942115e-01,2.907220656316473195e-01,2.902974340563259648e-01,2.879947827358622647e-01,2.859994488578455063e-01,2.716203820361029475e-01,2.642089739142376437e-01,0.000000000000000000e+00,5.244322044245051245e-02,5.160647791473930296e-02,0.000000000000000000e+00,0.000000000000000000e+00,0.000000000000000000e+00,0.000000000000000000e+00,0.000000000000000000e+00,0.000000000000000000e+00,0.000000000000000000e+00,0.000000000000000000e+00,0.000000000000000000e+00,0.000000000000000000e+00,0.000000000000000000e+00,0.000000000000000000e+00,0.000000000000000000e+00,0.000000000000000000e+00,4.371660964741673483e-02,0.000000000000000000e+00,0.000000000000000000e+00,4.254092093987132950e-02,0.000000000000000000e+00,0.000000000000000000e+00,0.000000000000000000e+00,0.000000000000000000e+00,0.000000000000000000e+00,0.000000000000000000e+00,7.433637057147728273e-03,0.000000000000000000e+00,0.000000000000000000e+00,0.000000000000000000e+00,0.000000000000000000e+00,0.000000000000000000e+00,7.289474518963029448e-03,0.000000000000000000e+00,2.996623858139615959e-02,0.000000000000000000e+00,0.000000000000000000e+00,2.227014000955177334e-02,0.000000000000000000e+00,0.000000000000000000e+00,0.000000000000000000e+00,0.000000000000000000e+00,0.000000000000000000e+00,nan
nan,4.492648778017276773e-02,6.911947645055127598e-02,2.255326537891525276e-02,1.748116436318851094e-02,3.439683795112856435e-02,4.965547615941748316e-02,4.585160756638764767e-02,1.007869055235251776e-01,1.390930382401917020e-01,3.581949247580178824e-02,1.385102016319060825e-01,2.209417002916494108e-02,1.801204719986990721e-01,1.225076382851910117e-01,8.645528553577491726e-02,1.346425725611885560e-01,1.697462727293898854e-01,2.077806730634407795e-01,1.366692736062090630e-01,9.593779644693462005e-02,1.247983588116152454e-01,2.250904024419750002e-02,1.244139530434134611e-01,1.055969716039667494e-01,1.193355464994219350e-01,9.598631436992037524e-02,1.895039656327987543e-01,2.030776539673107284e-01,1.325853898898760597e-01,1.234187837539822558e-01,2.056722894650650502e-01,1.913819407282716656e-01,3.026277135616966055e-02,1.627161930491349828e-01,8.204556694683148854e-02,6.463516715319314598e-02,1.073459740624908496e-02,6.905918780100203658e-02,3.837560292288799690e-02,1.058090661097121493e-01,1.159331456971252339e-01,4.699043604124458068e-02,1.461326038503385771e-01,1.730973208205253133e-01,2.606253122295333902e-01,2.868243044301047040e-01,2.941100534616120088e-01,2.939356303750165211e-01,2.980722868867260456e-01,2.965627900120387794e-01,2.936748337267049980e-01,2.893318778096222177e-01,2.815254516460434786e-01,2.783113610187828990e-01,1.695395829984583935e-01,2.386970332924648330e-01,5.456268129259332633e-02,1.351611487717575555e-01,1.722402543764254834e-01,2.235364758296747856e-01,2.070638654747622431e-01,1.184352183822647009e-01,3.729304717767965155e-02,3.620789919559598558e-02,5.680128297080468819e-02,1.668594571724313635e-01,1.320520777134757684e-01,3.748674613035472142e-02,1.258968676653697827e-01,1.561752243914992511e-01,9.161358089389308457e-02,1.698507341846285101e-01,9.912173720765231344e-02,1.717722610290982332e-01,1.052516139792726985e-01,7.573513504447021427e-02,8.309697020601115869e-02,1.494425483445176173e-01,1.806852890591465269e-02,1.678685745884651026e-01,6.340430389650288101e-02,1.305876970924663427e-01,5.042028959860832965e-02,1.329067263569456148e-01,1.386156649204430269e-01,1.119108167434836321e-01,1.654890545842674365e-01,1.334364500982128943e-01,1.595323621323354868e-01,1.503986033844322001e-01,1.196638441941676734e-01,6.454904971144810426e-03,1.282872958470791247e-01,5.925174970279381559e-02,1.096298110618101895e-01,1.159072148186418988e-01,3.949642928511173240e-02,1.242169447362472152e-02,nan
nan,7.874513768233344646e-02,1.058797718418738321e-01,1.030088857994623519e-01,1.503437394355652268e-01,1.660716670982260723e-01,1.725582710641034301e-01,1.794711579836949511e-01,1.849339969215010315e-01,1.901483373165626101e-01,1.684053203230242435e-01,1.966821398354827721e-01,1.965602122607567059e-01,2.091024551966068623e-01,2.120023253348491399e-01,2.139913844518341324e-01,2.163101065743457119e-01,2.183792611021909968e-01,2.197955003808588215e-01,2.211304230462085019e-01,2.225404863361399865e-01,2.250956339094687397e-01,2.273815632963822053e-01,2.301377750193103477e-01,2.322254099187612275e-01,2.338963696805767822e-01,2.350925117143838894e-01,2.366830011880702023e-01,2.378172864095560446e-01,2.389535250601156902e-01,2.403134855771452139e-01,2.416338164786218101e-01,2.424165618757812002e-01,2.447116836896863490e-01,2.460140886504291191e-01,2.473662290590314949e-01,2.023151963648715801e-01,2.510596086804360860e-01,2.314525464001935540e-01,2.548513254396270744e-01,2.565760911833532831e-01,2.444715735506183818e-01,2.141304763242969922e-01,2.664538825833665525e-01,2.708592571586739273e-01,2.764775092206284701e-01,2.840886228750048037e-01,2.876864500104229783e-01,2.899300472949672969e-01,2.911061370272770565e-01,2.910010130010205476e-01,2.885902944734252684e-01,2.852616665161237797e-01,2.814604511330027758e-01,2.772489985155894288e-01,2.726825675806984206e-01,2.664519057070047214e-01,1.546171404444539599e-01,2.564776977875711239e-01,2.556371979330978594e-01,2.539048250199029688e-01,2.523669378909469962e-01,2.508135479428275083e-01,2.482868430648412228e-01,2.473029105841079711e-01,2.458740021873887793e-01,2.440227952235614617e-01,2.426507590176999185e-01,2.416087245554545959e-01,2.335932985848870880e-01,2.385470518226862069e-01,2.377158256815607995e-01,2.114907516280168931e-01,2.338431946259278416e-01,2.324588792158968631e-01,2.259345015595329298e-01,2.283166200911814769e-01,2.270531818830582027e-01,2.261630061541781700e-01,2.021892902271404391e-01,2.203712116202788951e-01,2.182091841382153286e-01,1.929965509655184597e-01,2.132587888637914042e-01,2.106818254751658404e-01,2.075589585616836319e-01,2.045152280391221433e-01,2.020624254822863675e-01,1.982459688765132455e-01,1.954841764297206574e-01,1.922773968942968481e-01,1.891409861068289733e-01,1.696173833623939031e-01,1.701582832363776332e-01,1.630085591083714758e-01,1.555580469239569996e-01,1.482146491755226836e-01,1.238416017333457547e-01,7.557916417726515124e-02,nan
nan,8.005462570846155756e-02,1.136126091787579562e-01,1.342141070917720891e-01,1.535200237246671096e-01,1.651395800775474487e-01,1.725604802536273019e-01,1.796612400372198659e-01,1.856055928181709058e-01,1.897456486781919915e-01,1.937266342234831573e-01,1.978862430563108343e-01,2.022175649923043939e-01,2.074084240120709355e-01,2.109568728690366657e-01,2.135165798252292857e-01,2.158123040301693774e-01,2.179445790081551704e-01,2.196667974760595776e-01,2.213104314880665613e-01,2.230574576308980428e-01,2.250493521748842540e-01,2.276280676886389687e-01,2.296511560590365486e-01,2.316485560646853459e-01,2.333090623003307162e-01,2.348704263895943500e-01,2.364518161951523201e-01,2.376576213422427752e-01,2.389968776552854612e-01,2.402655409403232079e-01,2.414953627031919958e-01,2.427476006177212708e-01,2.443120588277845340e-01,2.459443099432409852e-01,2.473507765453323015e-01,2.489872716649181583e-01,2.507573414527768940e-01,2.525640965111125569e-01,2.543692363647915289e-01,2.563644507153605145e-01,2.588880545225434315e-01,2.617737824384930301e-01,2.651174687993476109e-01,2.684929372371300249e-01,2.730924247350142164e-01,2.766736867436537239e-01,2.801579281000787791e-01,2.824707051776917943e-01,2.835751700610470993e-01,2.835654895654339258e-01,2.818385126655889028e-01,2.797031604176459796e-01,2.764950267684758711e-01,2.733607959380361940e-01,2.694093328331982340e-01,2.644943899253968667e-01,2.605399351720325551e-01,2.569532356631382686e-01,2.552960459315329889e-01,2.536850563697889416e-01,2.523319825689091522e-01,2.504048151849692094e-01,2.484851376927283140e-01,2.469089367288573589e-01,2.455122627517238865e-01,2.440908814730162468e-01,2.426890572420134506e-01,2.412267583507652358e-01,2.398724788295513166e-01,2.385093213365511722e-01,2.369019783622422493e-01,2.352678205393332611e-01,2.336398130024613107e-01,2.322195487500906819e-01,2.303389620360149492e-01,2.286423842029313702e-01,2.270605220905546062e-01,2.254908851707990713e-01,2.235387735738078030e-01,2.208869290515556305e-01,2.183320532667972769e-01,2.159046046767744698e-01,2.134152025471559855e-01,2.105625516299942102e-01,2.082315932773558254e-01,2.047839237593980788e-01,2.015050751161140130e-01,1.985214804386885856e-01,1.953729116182421899e-01,1.920524962439131844e-01,1.873905949065810539e-01,1.806396861375623997e-01,1.727192323412357622e-01,1.641516887129506608e-01,1.557153546289661294e-01,1.456672127375138459e-01,1.269133857790197273e-01,8.622540646622942062e-02,nan
nan,8.200153954774679066e-02,1.166435933895262761e-01,1.387008506545873432e-01,1.548235637688589739e-01,1.645666382242564341e-01,1.728711970350739202e-01,1.795276547510781251e-01,1.852420211298570762e-01,1.899607719575794607e-01,1.942546673436839899e-01,1.983096957007182970e-01,2.032545282736950287e-01,2.070288474206482265e-01,2.101937022836949387e-01,2.131068991381804001e-01,2.154776085318648726e-01,2.176501013902313875e-01,2.195807305629999817e-01,2.213815015516167051e-01,2.232819864793483267e-01,2.253780348138269551e-01,2.275216085493899365e-01,2.294425869200472090e-01,2.313748591658106868e-01,2.330676273637094231e-01,2.346455466947425239e-01,2.361022208232689268e-01,2.375065132133936940e-01,2.388160587149334990e-01,2.401336715142740053e-01,2.413865217892540160e-01,2.426547860008514690e-01,2.443684516815405605e-01,2.456693589999826011e-01,2.471497395822979115e-01,2.486973464313236848e-01,2.503663391123400195e-01,2.521382853028150128e-01,2.538642396550779279e-01,2.558284378990286489e-01,2.580282842466534721e-01,2.605127340847702699e-01,2.634430958497911424e-01,2.663026145635246644e-01,2.694049402248669400e-01,2.728524866188803966e-01,2.750993990758776042e-01,2.766576349373773280e-01,2.774327135240808317e-01,2.772600777465915600e-01,2.763076852983158416e-01,2.745833869510246328e-01,2.724957644625000674e-01,2.695874041728013037e-01,2.663827114248857875e-01,2.630753345627057094e-01,2.597515095713581190e-01,2.568566078586357326e-01,2.550456922517293501e-01,2.531475539874454284e-01,2.515659503230531224e-01,2.499355932766475497e-01,2.483464935033246612e-01,2.467892621268746867e-01,2.453624808480618924e-01,2.439302860265981088e-01,2.424742810758237499e-01,2.410847896611743590e-01,2.397193162148280876e-01,2.383650026263730293e-01,2.367355487817559556e-01,2.352542677111047753e-01,2.336034293019340624e-01,2.319352511326870647e-01,2.302419027354409009e-01,2.285246106802833188e-01,2.268802108221371350e-01,2.251247217835008751e-01,2.232095262642337374e-01,2.208675213421429084e-01,2.184323744867108785e-01,2.160683770591563524e-01,2.134974192977220353e-01,2.106764447578376165e-01,2.080184335408388763e-01,2.049524962735199407e-01,2.017177556847607744e-01,1.984712557911394171e-01,1.949355010519315812e-01,1.910747376209080417e-01,1.862618378201494618e-01,1.804179763844078188e-01,1.731150498990163267e-01,1.651433571875986495e-01,1.559955920273188856e-01,1.440006528561818266e-01,1.239474626509549371e-01,8.806691859071032191e-02,nan
nan,8.605772464636970986e-02,1.204878285637061702e-01,1.407194016663768643e-01,1.545057482131896309e-01,1.648240345175228661e-01,1.728505514319801928e-01,1.793351382426169316e-01,1.850357033839809817e-01,1.899467724137560709e-01,1.944210411514127601e-01,1.986751736453682138e-01,2.027667509338622609e-01,2.065283587910694829e-01,2.098235740130858784e-01,2.126224958502841988e-01,2.151265027254511408e-01,2.173802868499970509e-01,2.193751414368040886e-01,2.213041836314944000e-01,2.232994614345570339e-01,2.253125574382107144e-01,2.273313279509653895e-01,2.292590057906515322e-01,2.310433716928519676e-01,2.327599739017554015e-01,2.343533371337195859e-01,2.358321316664485634e-01,2.372139238003722062e-01,2.385939078537362701e-01,2.399171881377568372e-01,2.411922364491735638e-01,2.425922552161113577e-01,2.440063433037026053e-01,2.454323071681999979e-01,2.468720839029040492e-01,2.483438536792200169e-01,2.499064671020557737e-01,2.515762625851514778e-01,2.533031155903065490e-01,2.550299444511600067e-01,2.570881752279168264e-01,2.592463344101273992e-01,2.615174818687683311e-01,2.640315304715624145e-01,2.664550115055924207e-01,2.688193051472017592e-01,2.705527204381573125e-01,2.718377347178441150e-01,2.724449788926536220e-01,2.723692116362765314e-01,2.715442133801973523e-01,2.705213664619828817e-01,2.684998881000120186e-01,2.665280471923313632e-01,2.638301019049156260e-01,2.613695419544708187e-01,2.585244710820515102e-01,2.563229572495140385e-01,2.544144460084969972e-01,2.525979279367964736e-01,2.510566202869560226e-01,2.495413608296309371e-01,2.479959453335808250e-01,2.464609434648387110e-01,2.450429794086493307e-01,2.436328802099579360e-01,2.422304098091548064e-01,2.408710295682633951e-01,2.394665468368786243e-01,2.380367198898569736e-01,2.365423019671054061e-01,2.350752391092679472e-01,2.334804522103880453e-01,2.318309633731839292e-01,2.301290595060866417e-01,2.284286324112113631e-01,2.266629222843250524e-01,2.248710068938119810e-01,2.228788832550783194e-01,2.206458336747192939e-01,2.183638188360818022e-01,2.159823052359862716e-01,2.133920176560324400e-01,2.107018075040579252e-01,2.079015207257518261e-01,2.048997482140451354e-01,2.017442448937632471e-01,1.983895280295906172e-01,1.948013969315628147e-01,1.906621186990092864e-01,1.858309195594913255e-01,1.801697304096616103e-01,1.733199395953629596e-01,1.652209839029542549e-01,1.557286204228657822e-01,1.430374326742952784e-01,1.255457696963151459e-01,9.072107349365321483e-02,nan
nan,8.589500274873794472e-02,1.218380628222332507e-01,1.412773111346606325e-01,1.549296200117790678e-01,1.649671512369125514e-01,1.725566284510539339e-01,1.793569646832732789e-01,1.849478856603243848e-01,1.899749530616987592e-01,1.945155671417522214e-01,1.986919829742791466e-01,2.026791433512520058e-01,2.061834584645858559e-01,2.094101822685463798e-01,2.122306109401376761e-01,2.147868334135854540e-01,2.170765536732150447e-01,2.191890226968793431e-01,2.212232678924402896e-01,2.232151722697967577e-01,2.251747128371242579e-01,2.270900776504373442e-01,2.289702909986894019e-01,2.307423353449324921e-01,2.324149849267975465e-01,2.340151627441872939e-01,2.354879139459497006e-01,2.368947965081613094e-01,2.382678880584526426e-01,2.395912371147941866e-01,2.409373987387129212e-01,2.422661149262133606e-01,2.436451652227061004e-01,2.450478399233304572e-01,2.464228741861126948e-01,2.478608450270165797e-01,2.493334106846379072e-01,2.508499689399678045e-01,2.525255951527279885e-01,2.542304001375052525e-01,2.559249044268208650e-01,2.578675481104255041e-01,2.598603179363260240e-01,2.618489661133064361e-01,2.637020253545340198e-01,2.654343071078859584e-01,2.670041340891531889e-01,2.679073170639143520e-01,2.682791737121155706e-01,2.684628826414053870e-01,2.677381158540305672e-01,2.667173524641621163e-01,2.651991493206866113e-01,2.635038534480871886e-01,2.615501410867854259e-01,2.593895460244399764e-01,2.572740109287702803e-01,2.553682248874782901e-01,2.535547207299351236e-01,2.519527904272088059e-01,2.504567369343468908e-01,2.489487380626913549e-01,2.475023168369941962e-01,2.460517111847442817e-01,2.446534275751975351e-01,2.432688081272618985e-01,2.418881690634810400e-01,2.405250769474045758e-01,2.391488546779787505e-01,2.377051575791603033e-01,2.362501119423436879e-01,2.347613887490890838e-01,2.331747883281832801e-01,2.315593704670566300e-01,2.299154184095290321e-01,2.282035009675329462e-01,2.264524652655657277e-01,2.245869687710204121e-01,2.225949902956912974e-01,2.204192428045436691e-01,2.181995581784364480e-01,2.158006277466807399e-01,2.132954429224019899e-01,2.106240155780269296e-01,2.078115357737853053e-01,2.047974931110085328e-01,2.016612807373626137e-01,1.982439227038209351e-01,1.945028787397694026e-01,1.902876574011805599e-01,1.855088378951297579e-01,1.798223825790965236e-01,1.732146880983049808e-01,1.651743886073664402e-01,1.552184206023341784e-01,1.429391398694395687e-01,1.247506285727452979e-01,8.174312713919443252e-02,nan
nan,8.744687763528362356e-02,1.180274259342474624e-01,1.415191509527750080e-01,1.548979870907574719e-01,1.647876123346832533e-01,1.727572347306420564e-01,1.789728379141806713e-01,1.848822139487001359e-01,1.899100857415517429e-01,1.943077039077064638e-01,1.984828071789077608e-01,2.023659743350970375e-01,2.058278330103111009e-01,2.090054362507066943e-01,2.118531793740506541e-01,2.143650792567038388e-01,2.167397657690621204e-01,2.189235498755343068e-01,2.209934506546870070e-01,2.229862531498544853e-01,2.249380413319597705e-01,2.268146306579005844e-01,2.286628728280447054e-01,2.303762220805519179e-01,2.320449239732093050e-01,2.336270338421246318e-01,2.351092818554789965e-01,2.365268665152286953e-01,2.378975033681167417e-01,2.392252927746455204e-01,2.405630828709664493e-01,2.418795462524385709e-01,2.432367221950529623e-01,2.445636532436712418e-01,2.459245579000315096e-01,2.472994196603088557e-01,2.487197824159592396e-01,2.501833178941252900e-01,2.516391810066959112e-01,2.532043911183929907e-01,2.547580071570781923e-01,2.564031941544256399e-01,2.580437681369575076e-01,2.596116225810910505e-01,2.611469695888119502e-01,2.626148047731695079e-01,2.637164381854942286e-01,2.646186169234108210e-01,2.649845886874894196e-01,2.649086789142398590e-01,2.644005922324673130e-01,2.635666201794479857e-01,2.625169808028156582e-01,2.609945514867906824e-01,2.594690467382159693e-01,2.577307681777724624e-01,2.559953172253408571e-01,2.543275056428911385e-01,2.526725302765408521e-01,2.511536513044010377e-01,2.497527824482214109e-01,2.483204843106380233e-01,2.469321896539714845e-01,2.455364323524152903e-01,2.441792472578517836e-01,2.428255606085581997e-01,2.414875320793513636e-01,2.401226237917734319e-01,2.387614060814445549e-01,2.373421250163012808e-01,2.359028001323723867e-01,2.344186015916800980e-01,2.328631775678336735e-01,2.312682438028497989e-01,2.296267715420251543e-01,2.279283628183136345e-01,2.261414378190187979e-01,2.242667808492701809e-01,2.222851114220311119e-01,2.201810443624159230e-01,2.179611360891196559e-01,2.156076922566620702e-01,2.130933145034852316e-01,2.104502890259769554e-01,2.076549647944189725e-01,2.046762077662047097e-01,2.014194797189431951e-01,1.979973937379073956e-01,1.941457176835675591e-01,1.899469435596445599e-01,1.851406726387796742e-01,1.796024429034080716e-01,1.729385987860783680e-01,1.649662182597544380e-01,1.554737386549049361e-01,1.426309409690826313e-01,1.226472475571012966e-01,8.945669730319194546e-02,nan
nan,8.549122125572880537e-02,1.192905513278338936e-01,1.410640172879330523e-01,1.543292900265541001e-01,1.640945570720467039e-01,1.724848832073300198e-01,1.790340491838154913e-01,1.845972084748703224e-01,1.896620889414322719e-01,1.942350787592233563e-01,1.982917327186768663e-01,2.020342846859163877e-01,2.054921787767968189e-01,2.086242350345134389e-01,2.114327703831024308e-01,2.140062402607998404e-01,2.163689800425875887e-01,2.185866195861703443e-01,2.206599329932703579e-01,2.226894888881126300e-01,2.246313433911646118e-01,2.264981456811809846e-01,2.282797354117394595e-01,2.299923999265136298e-01,2.316392140816489198e-01,2.331999602876620448e-01,2.346886417442334005e-01,2.360968674318382476e-01,2.374721771354764699e-01,2.388071915644597309e-01,2.401233839595566244e-01,2.414167564804084454e-01,2.427304320592190146e-01,2.440296130640580985e-01,2.453338243328390678e-01,2.466585296148422757e-01,2.480078275275829636e-01,2.493465794280269598e-01,2.507544304390409429e-01,2.521260849282759287e-01,2.535448919894391362e-01,2.550178050999670765e-01,2.563388466845369362e-01,2.577658163327195551e-01,2.590855175818007616e-01,2.601304355244364874e-01,2.610711013425670579e-01,2.615492182967896206e-01,2.617966925122872102e-01,2.618923310171455410e-01,2.616391372915395919e-01,2.608650729259500145e-01,2.598492981101203636e-01,2.587806423971988901e-01,2.575449102533279300e-01,2.560199508516354805e-01,2.546172893671935222e-01,2.531394593577732666e-01,2.516765872204599352e-01,2.502914648352120852e-01,2.489516400371163951e-01,2.476278909398568762e-01,2.462726559142016380e-01,2.449689852582830341e-01,2.436419580995794198e-01,2.423322728235569601e-01,2.410030284540819190e-01,2.396813702547382352e-01,2.383079568872148724e-01,2.369245217957369753e-01,2.354940342576476997e-01,2.340237992488108931e-01,2.324964898442756223e-01,2.308966841432167627e-01,2.292752277390929239e-01,2.275770798368135783e-01,2.258054071484286718e-01,2.239301946943139665e-01,2.219617191651059029e-01,2.198622799129170136e-01,2.176717040724903685e-01,2.153286250285841030e-01,2.128444598113884700e-01,2.101995540119537542e-01,2.074056309834769185e-01,2.044173278298624385e-01,2.011740165409595105e-01,1.976343419745520413e-01,1.938972096361158970e-01,1.896281686052521120e-01,1.848453462255958690e-01,1.788895728959229436e-01,1.726940041208164245e-01,1.649255137013238004e-01,1.550807697302546417e-01,1.422377849134037753e-01,1.226264733665955314e-01,8.887160607912053534e-02,nan
nan,8.496315674160603848e-02,1.181432433355799200e-01,1.409936358336097428e-01,1.545842332867509161e-01,1.646390363412500446e-01,1.724033313028947301e-01,1.788345012672598044e-01,1.844458932845329246e-01,1.893621350218317734e-01,1.939046932050917660e-01,1.979052326018041763e-01,2.016950971378436708e-01,2.051085437450002880e-01,2.081699399917399940e-01,2.110119291111510198e-01,2.135819222934816075e-01,2.159762066137480008e-01,2.182112920767705355e-01,2.203147519092868989e-01,2.223330418922213059e-01,2.242503976614879102e-01,2.261032007770238939e-01,2.278771269487429862e-01,2.295647570492373168e-01,2.311952794445909787e-01,2.327288142131164195e-01,2.342012828805835889e-01,2.356231764081229973e-01,2.369843688426185313e-01,2.383005136492709619e-01,2.396116386761003303e-01,2.409011138966240806e-01,2.421624956830199793e-01,2.434396911263025931e-01,2.446931914347647008e-01,2.459582053791600775e-01,2.472200699240668653e-01,2.485043617546659755e-01,2.497509154092322770e-01,2.510763531014756356e-01,2.522870674860796525e-01,2.535739079536282747e-01,2.547749047503722886e-01,2.559664831919078454e-01,2.570023548972802385e-01,2.578469426235709405e-01,2.586659913461736848e-01,2.591250039877520672e-01,2.593699877341684723e-01,2.594122767498659998e-01,2.590779890441658462e-01,2.584849690751830353e-01,2.577855620879740406e-01,2.568620633175188739e-01,2.557407274209122505e-01,2.544837350836082202e-01,2.532532211490355900e-01,2.519059690939774443e-01,2.506629287165549336e-01,2.493835081870382775e-01,2.481246833905925986e-01,2.468409347958460398e-01,2.455917666771808838e-01,2.443151858920160624e-01,2.430497055758557845e-01,2.417675489520186849e-01,2.404668846720468545e-01,2.391554706356691096e-01,2.378224105532941723e-01,2.364419971354548289e-01,2.350297749990602481e-01,2.335646920138325644e-01,2.320682162701246110e-01,2.304842317787496597e-01,2.288540338831929200e-01,2.271731886220116348e-01,2.254036310092803475e-01,2.235397746387314255e-01,2.215984315021799489e-01,2.195278263250357853e-01,2.173012521552145915e-01,2.149854881230260362e-01,2.125254720410781339e-01,2.099052157194279677e-01,2.071148347843626003e-01,2.041098118328374955e-01,2.008799600398036844e-01,1.974087125016029676e-01,1.935338208612247257e-01,1.891825132811854326e-01,1.843627771437821028e-01,1.788877259172993173e-01,1.723632847227823117e-01,1.646983948531038633e-01,1.548496550431052166e-01,1.418412062485873149e-01,1.228446136550458007e-01,8.384221924085211164e-02,nan
nan,8.659819144568413340e-02,1.222207210317292625e-01,1.412907078395415628e-01,1.542041302471565123e-01,1.646047590197135813e-01,1.724260263751590527e-01,1.785320619239766371e-01,1.842288989630413432e-01,1.890009720655854708e-01,1.935220010689486791e-01,1.976447919873634274e-01,2.012726508526023750e-01,2.046353339084032164e-01,2.077201887636425104e-01,2.105080756311965007e-01,2.131217870815472759e-01,2.155459505883229598e-01,2.177651911399441642e-01,2.198809529381514083e-01,2.218846044169638931e-01,2.238172464427511110e-01,2.256469579573695539e-01,2.273926288181157829e-01,2.290738294859483437e-01,2.306630699831308806e-01,2.322105151080942342e-01,2.336691100800217802e-01,2.350778455642168752e-01,2.364357387638890140e-01,2.377563245951990201e-01,2.390402420084625779e-01,2.403035354187562644e-01,2.415495167004951815e-01,2.427689027361542295e-01,2.439746752269089936e-01,2.451940042410129528e-01,2.463833822835091725e-01,2.475740944177848291e-01,2.487425997311178139e-01,2.499250419194698203e-01,2.510799625204290786e-01,2.522131428445308909e-01,2.533168694749344807e-01,2.542383354362904857e-01,2.551388552922679298e-01,2.558668945253921301e-01,2.564735878095598665e-01,2.568929605969818009e-01,2.571056369172933787e-01,2.570807818725296956e-01,2.568952221320237594e-01,2.563836831193275767e-01,2.557427887871597805e-01,2.549895381673982220e-01,2.540558568841392306e-01,2.530077268863101247e-01,2.519081148199767139e-01,2.507605880471976967e-01,2.496141434085014654e-01,2.484261030481103305e-01,2.472418799711198212e-01,2.460344068813158647e-01,2.448356031299426805e-01,2.436106940488245720e-01,2.423892554853414316e-01,2.411410093039230151e-01,2.398878246332658004e-01,2.385982208388067183e-01,2.372802868430857193e-01,2.359225445506059338e-01,2.345147474406617527e-01,2.330722984769657002e-01,2.315690215581588385e-01,2.300250635626586715e-01,2.284136433643427500e-01,2.267258325105725170e-01,2.249362937171642263e-01,2.231058299133223399e-01,2.211499602831129840e-01,2.190831855064213074e-01,2.169138273968975461e-01,2.146097587054488220e-01,2.121320155590223078e-01,2.095027696781521787e-01,2.067239293866514060e-01,2.037515055133393704e-01,2.005579821515458550e-01,1.969875463555047224e-01,1.931255402074175120e-01,1.888651793609880114e-01,1.840523429920234433e-01,1.782398573250878471e-01,1.719320395786621547e-01,1.643229922913633789e-01,1.547693695132012492e-01,1.427642476445248332e-01,1.235587235779195825e-01,9.038970804247672963e-02,nan
nan,8.851905552431899027e-02,1.207525499761166743e-01,1.415571560840057364e-01,1.542461240680709500e-01,1.643723208010648973e-01,1.720569994663310454e-01,1.783332634178815823e-01,1.839746846357818988e-01,1.886589638774192057e-01,1.930929432691488312e-01,1.972343473955073256e-01,2.008764867937588572e-01,2.041451181759859068e-01,2.071823606540099671e-01,2.100290851207800291e-01,2.125869082838901525e-01,2.150232468785342466e-01,2.172691991601028993e-01,2.193769371963555370e-01,2.213933792885040552e-01,2.233052718256079983e-01,2.251372300099089840e-01,2.268757000307190241e-01,2.285255230311354913e-01,2.301139676807293921e-01,2.316357048753166503e-01,2.331041803474420415e-01,2.344965944479456277e-01,2.358423441024168621e-01,2.371446678422667043e-01,2.384195584777444865e-01,2.396545911790128325e-01,2.408605222709351290e-01,2.420520970863714039e-01,2.432174095475301556e-01,2.443697193337039941e-01,2.455096832610723923e-01,2.466316595615515861e-01,2.477219587072423679e-01,2.488173440903003186e-01,2.498549403097410915e-01,2.508472410725798851e-01,2.517980881503145141e-01,2.526227792421042451e-01,2.534300364864431887e-01,2.540494011070673630e-01,2.545606916735790870e-01,2.548674089442362067e-01,2.549851723388354419e-01,2.550344961554946721e-01,2.548555347594134712e-01,2.544326287033344958e-01,2.539165956308583327e-01,2.532503168235415436e-01,2.524509347560134342e-01,2.515382047901560392e-01,2.505899590907195718e-01,2.495599244352346702e-01,2.484869875978790721e-01,2.474122824041360136e-01,2.462828656753437429e-01,2.451739778131319381e-01,2.440239358693964133e-01,2.428700486951679283e-01,2.416751066399834835e-01,2.404664542953176554e-01,2.392333562431079308e-01,2.379690958364184816e-01,2.366736741228373797e-01,2.353384404214866610e-01,2.339568725275070205e-01,2.325127893178061678e-01,2.310428775490743214e-01,2.294964851099753345e-01,2.278970935206642845e-01,2.261991275167083704e-01,2.244493587740953311e-01,2.226212657703031395e-01,2.206691634231374710e-01,2.186133011009106786e-01,2.164489153040330960e-01,2.141417783964885690e-01,2.117084224214976496e-01,2.091093491753383826e-01,2.063284534111712032e-01,2.033008479462176110e-01,2.001469745698693792e-01,1.966366847643648830e-01,1.926341988952429141e-01,1.883798382801091242e-01,1.835560904681958760e-01,1.780191076229044878e-01,1.715882778746380954e-01,1.639102784527575185e-01,1.547592124529385549e-01,1.413761641575811134e-01,1.242920413546950986e-01,8.745485362424094966e-02,nan
nan,8.580012904518069528e-02,1.242240183740860870e-01,1.417505927561365509e-01,1.539992366889294806e-01,1.640308372320752883e-01,1.717361024986526208e-01,1.779672256281258358e-01,1.834982801561638732e-01,1.882943370807302896e-01,1.927473061281697320e-01,1.966566074351102922e-01,2.003691485122505722e-01,2.036119687109821941e-01,2.066519571064167338e-01,2.094528537172179461e-01,2.120658360989868818e-01,2.144709245864057645e-01,2.167202895746960789e-01,2.188373260301768597e-01,2.208320328745685401e-01,2.227536139643560564e-01,2.245559278757218724e-01,2.263004789357670743e-01,2.279480071519380258e-01,2.295172228946139314e-01,2.310330222359847641e-01,2.324802615408233242e-01,2.338702891962570751e-01,2.352026823805741240e-01,2.364822292213780153e-01,2.377330681798983103e-01,2.389562239847018155e-01,2.401111241950115160e-01,2.412893016870515939e-01,2.424120412041221306e-01,2.435217992292521838e-01,2.445929180168994743e-01,2.456621217119684675e-01,2.466735686203951894e-01,2.476594128458341759e-01,2.486304966099334157e-01,2.495337670167711575e-01,2.503588034583397182e-01,2.511107490088154703e-01,2.518093534137607614e-01,2.523141076413093487e-01,2.527595006977023662e-01,2.530080317561421155e-01,2.531957133228439072e-01,2.531719052206360399e-01,2.529615650831874563e-01,2.526629906832210115e-01,2.522346473766220454e-01,2.516387957613701598e-01,2.509144409375180240e-01,2.501505625807014521e-01,2.492769993876224055e-01,2.483749566126983166e-01,2.473931510350738106e-01,2.463873194000057998e-01,2.453336629995203078e-01,2.442775841391223446e-01,2.431702638276494466e-01,2.420268930267325813e-01,2.409102008422402408e-01,2.397404045907389203e-01,2.385316525217126560e-01,2.372955071904097046e-01,2.360002788517115979e-01,2.347002730158037065e-01,2.333287384402325249e-01,2.319111031223469455e-01,2.304436265528871097e-01,2.289174363902530540e-01,2.273164815379136172e-01,2.256491394136081741e-01,2.238983390112805616e-01,2.220709391963154034e-01,2.201451053104387379e-01,2.180772040118162114e-01,2.159319416134352632e-01,2.136433497440431428e-01,2.111947349719131284e-01,2.086318978420462211e-01,2.058669319112935159e-01,2.028614540800868782e-01,1.996529205763530324e-01,1.961582486015912008e-01,1.922011124928393877e-01,1.879042271263517971e-01,1.830525000169689331e-01,1.776382960192690874e-01,1.711788376155634894e-01,1.635310075035188437e-01,1.543828826823095135e-01,1.424596834455410521e-01,1.223556035870229375e-01,8.537442939901571104e-02,nan
nan,9.258450775275670064e-02,1.243181578202476600e-01,1.422728827830193610e-01,1.543453570648729289e-01,1.635503499936697414e-01,1.709412342970277610e-01,1.775564604979776862e-01,1.830432564631748471e-01,1.878943200125750557e-01,1.922113112789377576e-01,1.962142738251812513e-01,1.997955522218776980e-01,2.030554308907244476e-01,2.061073986629153310e-01,2.088870446286215099e-01,2.114562874549212879e-01,2.138786808753803947e-01,2.161217743016256299e-01,2.182388468652679547e-01,2.202402379455461467e-01,2.221377042401844470e-01,2.239288909431139951e-01,2.256547591047916579e-01,2.272900125458136300e-01,2.288610368545577756e-01,2.303700440360293145e-01,2.317913917280745861e-01,2.331704016430851123e-01,2.344982126114048826e-01,2.357695075240729965e-01,2.369957356769564205e-01,2.381926193020980909e-01,2.393453052634467448e-01,2.404679101384765705e-01,2.415654184221778522e-01,2.426250431188956003e-01,2.436491466426161656e-01,2.446499728728983025e-01,2.456178050678125557e-01,2.465008222874652821e-01,2.474165536533132481e-01,2.482108473013062977e-01,2.489632151518598457e-01,2.496603672571485744e-01,2.502237100022017269e-01,2.507146656294751419e-01,2.510825000692493703e-01,2.513335083518379864e-01,2.514615396302718464e-01,2.514594205192560161e-01,2.512870995243777772e-01,2.509913704047904703e-01,2.506285114439868456e-01,2.500974406344846912e-01,2.494785182064113149e-01,2.487851737802427576e-01,2.480114999544030807e-01,2.471637880418657562e-01,2.462678436341278476e-01,2.453319249661396473e-01,2.443304896761505085e-01,2.433273625348973956e-01,2.422713666325486681e-01,2.412130692784896502e-01,2.401039654731486617e-01,2.389563751213342746e-01,2.377843015620279832e-01,2.365605227462051485e-01,2.353057988170890458e-01,2.340062952341894764e-01,2.326647008818538975e-01,2.312508931803762824e-01,2.297978305516409914e-01,2.282912908932471230e-01,2.266995931763109151e-01,2.250433625241864966e-01,2.232947623771996404e-01,2.214651226829747466e-01,2.195431571757972822e-01,2.175168780278819158e-01,2.153335005436354810e-01,2.130684076521237869e-01,2.106324946731149006e-01,2.080831338320237867e-01,2.053403580590180688e-01,2.023932496985184071e-01,1.991460971902114241e-01,1.955304191930979374e-01,1.916951861104037591e-01,1.873978036084501531e-01,1.825265563921489864e-01,1.769453846982685097e-01,1.705893936719261594e-01,1.630174936446051881e-01,1.539576615345923938e-01,1.418359346284080169e-01,1.225011566364945792e-01,8.791358613014643719e-02,nan
nan,9.042991568674940694e-02,1.234835395374819789e-01,1.419757071947043148e-01,1.536347853823328280e-01,1.629528431722344906e-01,1.704409274507290295e-01,1.769897507342149123e-01,1.824866287563584044e-01,1.873186825932855459e-01,1.917336329651695981e-01,1.955898502020875784e-01,1.992046543385692092e-01,2.024410023033852701e-01,2.054995518981830582e-01,2.082679663445784479e-01,2.107894774882966837e-01,2.132189408381576223e-01,2.154459664501846006e-01,2.175682042820818451e-01,2.195715206384921403e-01,2.214613763786469347e-01,2.232649357043437199e-01,2.249613113483270865e-01,2.266023494068206967e-01,2.281504105271563998e-01,2.296441453326494853e-01,2.310720292974405565e-01,2.324379918890259467e-01,2.337471252060910887e-01,2.350084574932616022e-01,2.362268504348056242e-01,2.373786839322571951e-01,2.385209910688034229e-01,2.396080751726915870e-01,2.406667102396543856e-01,2.416895265837865625e-01,2.426576291973720489e-01,2.436289028004942903e-01,2.445201435268374024e-01,2.453771828259215249e-01,2.461781726972304130e-01,2.469342306576034485e-01,2.476427549841101472e-01,2.482412285516966133e-01,2.487669347059500990e-01,2.491800604405802755e-01,2.495027301092281047e-01,2.497211624247240858e-01,2.498304115588594887e-01,2.498287269393762444e-01,2.497198113052060964e-01,2.494427460861548540e-01,2.490877633196871832e-01,2.486414062087189958e-01,2.480780230746158499e-01,2.474454036819073999e-01,2.467347656533609435e-01,2.459641432931779781e-01,2.451219611931355902e-01,2.442602983104905645e-01,2.433266436340537076e-01,2.423630954627326028e-01,2.413610611949091878e-01,2.403168829130711004e-01,2.392348943675667305e-01,2.381295991762449882e-01,2.369741754091236330e-01,2.357866094265430590e-01,2.345351802401982044e-01,2.332646636099203197e-01,2.319309405258591916e-01,2.305546427164312240e-01,2.291020787735869035e-01,2.275977550396737770e-01,2.260241531296247885e-01,2.243725622593771563e-01,2.226489952724742816e-01,2.208025511456710721e-01,2.188879414847745841e-01,2.168608557883418553e-01,2.147308190294422159e-01,2.124485338275636237e-01,2.100524543333563143e-01,2.074949607853528999e-01,2.047146504841913239e-01,2.017483041999600379e-01,1.985033231664386222e-01,1.949420852263337722e-01,1.910997586652028735e-01,1.867417332984391276e-01,1.819423384338766658e-01,1.763444750433432739e-01,1.700102376490232603e-01,1.622036842976420645e-01,1.530703465671497954e-01,1.405159765969391517e-01,1.203611485314138585e-01,8.478229123617547769e-02,nan
nan,8.925985126940509662e-02,1.251516726792346046e-01,1.412561396307731865e-01,1.530437754156307728e-01,1.624564628378532272e-01,1.698837405223607711e-01,1.763832220239680837e-01,1.819123337213955638e-01,1.867575687948838381e-01,1.910042327968548559e-01,1.950071987545878294e-01,1.985762475911431180e-01,2.017857361708387254e-01,2.047926331452368520e-01,2.075697544371764569e-01,2.100959219029969183e-01,2.125040084415177333e-01,2.147360504964856143e-01,2.168670700507857041e-01,2.188564017545233664e-01,2.207478888317280230e-01,2.225183608938010593e-01,2.242300394226309224e-01,2.258591698627666899e-01,2.274115608878074790e-01,2.288857003903164156e-01,2.302954354289306615e-01,2.316482549017906400e-01,2.329560356787672981e-01,2.341842551719031107e-01,2.353908937698930004e-01,2.365412023073330539e-01,2.376352693558761997e-01,2.387027933302881821e-01,2.397372890593293671e-01,2.407169063779901474e-01,2.416536718306374620e-01,2.425640763161082680e-01,2.434205491299846480e-01,2.442329517093620450e-01,2.449822126280422063e-01,2.456874443662237506e-01,2.463161539867156913e-01,2.468818063970877608e-01,2.473485605643508389e-01,2.477138290224359940e-01,2.480252927080676961e-01,2.482256410939653046e-01,2.483069263511188396e-01,2.483087994200769144e-01,2.481866839037472905e-01,2.479408681267223635e-01,2.476527182792499782e-01,2.472176731408070316e-01,2.466932088807989865e-01,2.461327295061631615e-01,2.454531952318478871e-01,2.447676480064762128e-01,2.439896888733698033e-01,2.431548985924947837e-01,2.422730001297680735e-01,2.413707040761981226e-01,2.404016082767028162e-01,2.393786292479869182e-01,2.383495289698137898e-01,2.372650140389653828e-01,2.361344613410726323e-01,2.349508171208543605e-01,2.337439774468369758e-01,2.324760896875024407e-01,2.311488112506680515e-01,2.297870442054812945e-01,2.283556714221828265e-01,2.268686393266673151e-01,2.252869324592024214e-01,2.236532671708793274e-01,2.219278690727816694e-01,2.201127408652531758e-01,2.181906512706288104e-01,2.161853361684989150e-01,2.140273233867256986e-01,2.117828117303453550e-01,2.093311040932606115e-01,2.068024867097383035e-01,2.041019344228311161e-01,2.011376272749561545e-01,1.978551337958313616e-01,1.943759935058161359e-01,1.904989131739112940e-01,1.862031863424056799e-01,1.813361316255514000e-01,1.759227445695945580e-01,1.696847883408741375e-01,1.617817897670042471e-01,1.524202163873242810e-01,1.399748983849684325e-01,1.206330830717858293e-01,8.550320145050605003e-02,nan
nan,9.247944280330484823e-02,1.226581613014084138e-01,1.406114611195001807e-01,1.525790599452125362e-01,1.619397085518580470e-01,1.692639224538952103e-01,1.757818712118472126e-01,1.812021686399314935e-01,1.860883548926453579e-01,1.903582190460650914e-01,1.943127565411583157e-01,1.978893963035069370e-01,2.010663172001259658e-01,2.040664494104211246e-01,2.067974788778065842e-01,2.093503273923771890e-01,2.117375959063291235e-01,2.139940424014793730e-01,2.161059534086767209e-01,2.180865501758989522e-01,2.199655933066439195e-01,2.217607490993646624e-01,2.234329317980524587e-01,2.250466967045785804e-01,2.266112200253495024e-01,2.280695920315841119e-01,2.294740604894418556e-01,2.308193255117788611e-01,2.320965237232333611e-01,2.333301835440949601e-01,2.345125053509267421e-01,2.356442396583421084e-01,2.367243848724087663e-01,2.377658222972086344e-01,2.387637889107234179e-01,2.397144043311386363e-01,2.406188534528890532e-01,2.414831402285089745e-01,2.423029718481552186e-01,2.430643961572875045e-01,2.437639254455470361e-01,2.444344119181235953e-01,2.450109088691346526e-01,2.455355288035480643e-01,2.459736572200259819e-01,2.463343709693768535e-01,2.465942192929984067e-01,2.467563792647960996e-01,2.468625755290434487e-01,2.468302367961290322e-01,2.467339497778225921e-01,2.465284634841344857e-01,2.462382342287814108e-01,2.458464768691466240e-01,2.454020257569539676e-01,2.448328833227455537e-01,2.442395072698318736e-01,2.435841780632719833e-01,2.428405473179316432e-01,2.420581898061444637e-01,2.412012070162418698e-01,2.403301124693239532e-01,2.394028976597374903e-01,2.384322383161807390e-01,2.374116484933134763e-01,2.363481322643201099e-01,2.352401095581778123e-01,2.340817354268457939e-01,2.328942774393977511e-01,2.316392430030339566e-01,2.303371380873291963e-01,2.289743495671615614e-01,2.275584411337689128e-01,2.260769417315650620e-01,2.245188533569698608e-01,2.228742877119432031e-01,2.211545336504516790e-01,2.193496909975432563e-01,2.174392059483337691e-01,2.154344405286052477e-01,2.132972033493097663e-01,2.110626670259310167e-01,2.086519458243147052e-01,2.060872537090057133e-01,2.033488379250569522e-01,2.003560684823506577e-01,1.971790293072024913e-01,1.937054257769962318e-01,1.898184935378062210e-01,1.855415986187425315e-01,1.806847596174476767e-01,1.752580424631249301e-01,1.690444001220766657e-01,1.612528020865418299e-01,1.518776879889686404e-01,1.389734618119057574e-01,1.197955996111246812e-01,8.561972658246387591e-02,nan
nan,8.435993117475094893e-02,1.212409297782940099e-01,1.391622712450874821e-01,1.520315057389438618e-01,1.613357574620364332e-01,1.688102561146652414e-01,1.752207399992015968e-01,1.805794165044214972e-01,1.854122498619723280e-01,1.897108230024596442e-01,1.935441186972816918e-01,1.971109667021505307e-01,2.003277759233726973e-01,2.032977137036667825e-01,2.060191089805104570e-01,2.085714749580429017e-01,2.109424896551188588e-01,2.131683671604628072e-01,2.152833544281067824e-01,2.172621794896938408e-01,2.191306093008827949e-01,2.209084151021054876e-01,2.225891129970976601e-01,2.242087996479079359e-01,2.257387356159657466e-01,2.272023363595708778e-01,2.285997415332466920e-01,2.299289842654054228e-01,2.311890379912142635e-01,2.324158707792058354e-01,2.335865121213255846e-01,2.346877793746319218e-01,2.357601521169161440e-01,2.367838678465683522e-01,2.377392541483556720e-01,2.386774483305763583e-01,2.395561504680641385e-01,2.403785380094409785e-01,2.411633132071608898e-01,2.418930250430919859e-01,2.425543660464573037e-01,2.431642779900736184e-01,2.437217391001566258e-01,2.442087673520563773e-01,2.446091657150346321e-01,2.449510185978175658e-01,2.452016283317010048e-01,2.453565596612907185e-01,2.454323564774597288e-01,2.454189471254717148e-01,2.453298013916248577e-01,2.451410290896089972e-01,2.448722218964037578e-01,2.445138311533624764e-01,2.440778102889820944e-01,2.435641435091265294e-01,2.430075883802192416e-01,2.423649969586618158e-01,2.416700886226280098e-01,2.409080713105500871e-01,2.401148791385031012e-01,2.392645939820823020e-01,2.383707199269636257e-01,2.374286796570375391e-01,2.364167029455839786e-01,2.353866793507763400e-01,2.342935001103516601e-01,2.331708073473834353e-01,2.319899199671298096e-01,2.307551195601648675e-01,2.294700395889378575e-01,2.281151115040823130e-01,2.267110839135259293e-01,2.252203690570767636e-01,2.236690756966989158e-01,2.220582109504151691e-01,2.203287154302176476e-01,2.185185549322104515e-01,2.166389863229796209e-01,2.146365434906027381e-01,2.125399315401794720e-01,2.102816573104564490e-01,2.078829113237714576e-01,2.053219002937707593e-01,2.026304063194845628e-01,1.996739011942543496e-01,1.964421460516350137e-01,1.929711273059114829e-01,1.891348646883189433e-01,1.847871124860625269e-01,1.800258182106515836e-01,1.744569871569191244e-01,1.683538317497713932e-01,1.605317802062954657e-01,1.511543821051799796e-01,1.374021251331875582e-01,1.170274185589486038e-01,8.271185573102091126e-02,nan
nan,8.376809914922379863e-02,1.189210578188794054e-01,1.378419887937468447e-01,1.513000529062156763e-01,1.607021279521581303e-01,1.681695668124299214e-01,1.745097154202439604e-01,1.798424408560244103e-01,1.846435736791434135e-01,1.889019557956408135e-01,1.927634570091049382e-01,1.962991410917296065e-01,1.994468319937076073e-01,2.024384775030145800e-01,2.051604416461749736e-01,2.077257155677216249e-01,2.100587466995291475e-01,2.123026420568034922e-01,2.144104176985188182e-01,2.163704121690587789e-01,2.182291325178753461e-01,2.199957065680835377e-01,2.216902614005426819e-01,2.232766142068392523e-01,2.248229873551431390e-01,2.262717464102609322e-01,2.276634432019586096e-01,2.289915366040512767e-01,2.302455395506899927e-01,2.314535685136753784e-01,2.326132594046975144e-01,2.337175120354244295e-01,2.347552349193016141e-01,2.357561856224117958e-01,2.367033189629694501e-01,2.376033361496008023e-01,2.384558575436723782e-01,2.392524949642529930e-01,2.399941133582429442e-01,2.406914453244660690e-01,2.413372830471940955e-01,2.419106815908881325e-01,2.424354512734408773e-01,2.428812895179580378e-01,2.432685349514794315e-01,2.435878479414128606e-01,2.438110230251407107e-01,2.439710093537126867e-01,2.440382844162232723e-01,2.440286421737611344e-01,2.439421972995797216e-01,2.437620609226365531e-01,2.435105350988403805e-01,2.431770636217840953e-01,2.427784143558735508e-01,2.423048162656180615e-01,2.417556067929270691e-01,2.411558552038000069e-01,2.404858739155323610e-01,2.397646915758533948e-01,2.389834780315497342e-01,2.381747174531020916e-01,2.372984326583085779e-01,2.363760073525329186e-01,2.353993836106363091e-01,2.343683831919905758e-01,2.333234959030101030e-01,2.322107609026040076e-01,2.310362631359422769e-01,2.298172352552874664e-01,2.285297835672820410e-01,2.272014252665773837e-01,2.257857055951294767e-01,2.243166483469541395e-01,2.227864612333617655e-01,2.211633581833525042e-01,2.194612250865323744e-01,2.176648862051114852e-01,2.157714772238451539e-01,2.137919840619684209e-01,2.116798807035953633e-01,2.094521614280381028e-01,2.071073497777953798e-01,2.045507921014461938e-01,2.017971733783689992e-01,1.988483792251197479e-01,1.956619899565023857e-01,1.921651220836009810e-01,1.883826432485275482e-01,1.841261750662784302e-01,1.791938616020100350e-01,1.737797173361879111e-01,1.674187855873341402e-01,1.598435596181699281e-01,1.493973764120625214e-01,1.368291054699792286e-01,1.114167720276525164e-01,8.132275341734182539e-02,nan
nan,8.318977435872357273e-02,1.139427658976305546e-01,1.377314539612758126e-01,1.503366177949343740e-01,1.599080676736718276e-01,1.672982776433907248e-01,1.737250807963930388e-01,1.790238894309224005e-01,1.837823744267294834e-01,1.881146409552592047e-01,1.919330405645700566e-01,1.953528038757119667e-01,1.986144838867987261e-01,2.015329878412142617e-01,2.042873255246179798e-01,2.068075072292867023e-01,2.091527773156696135e-01,2.113740311430440666e-01,2.134707933517250855e-01,2.154420663009013470e-01,2.172933065452834489e-01,2.190566772862177491e-01,2.207319546832768042e-01,2.223435721839835399e-01,2.238583911410480243e-01,2.253105395605990158e-01,2.266815854928721230e-01,2.279982201027208888e-01,2.292477613603357001e-01,2.304568553388519903e-01,2.315898789662597657e-01,2.326700902940858351e-01,2.337213528504609450e-01,2.346854253064450946e-01,2.356160102908952392e-01,2.365057477868941216e-01,2.373240368360998720e-01,2.380983861785188338e-01,2.388221732587425816e-01,2.394767393013007839e-01,2.400961106574807657e-01,2.406404119198259917e-01,2.411391485449189409e-01,2.415688917396917323e-01,2.419366632103461534e-01,2.422316413601672824e-01,2.424390855805224620e-01,2.425988079485622562e-01,2.426535749121685182e-01,2.426540222742883390e-01,2.425649624197075416e-01,2.423990545843413280e-01,2.421634472253491599e-01,2.418540834723683086e-01,2.414670334819057351e-01,2.410205747401953091e-01,2.405048143478222822e-01,2.399264524163284840e-01,2.392877928169926949e-01,2.385816451588170795e-01,2.378440091217206287e-01,2.370437355018777947e-01,2.361924515182764195e-01,2.352883001329498514e-01,2.343413555913461399e-01,2.333439123856769770e-01,2.322978289390802698e-01,2.311861475587091430e-01,2.300357232760945614e-01,2.288173326055885359e-01,2.275524722876722805e-01,2.262261270420991843e-01,2.248252562910166286e-01,2.233736197421853920e-01,2.218391445856405797e-01,2.202182633831410163e-01,2.185220527643283450e-01,2.167385811180584376e-01,2.148573304106344561e-01,2.128886641988052553e-01,2.107686357955918799e-01,2.085477302098379115e-01,2.061603391258599871e-01,2.036414408014010635e-01,2.008950372234234449e-01,1.979869704515148099e-01,1.948132503961001183e-01,1.913566001881487622e-01,1.875439116786503657e-01,1.833207539963732091e-01,1.784981020134540630e-01,1.730138459831191133e-01,1.668332234957441151e-01,1.592564613922114736e-01,1.496309341112441460e-01,1.359824078365452771e-01,1.122637390553953007e-01,8.185874206886276094e-02,nan
nan,8.298402593728548826e-02,1.159912956593588118e-01,1.353590731570310512e-01,1.497662569792841403e-01,1.589714481033014382e-01,1.666244079331716532e-01,1.727437288307924756e-01,1.782011022118671906e-01,1.829404548334720437e-01,1.872319605760985051e-01,1.910211075318182794e-01,1.944457225608770545e-01,1.976650825077149731e-01,2.005648869198353168e-01,2.032787207842393640e-01,2.058171530872144883e-01,2.081646012390109546e-01,2.103929148065857291e-01,2.124806776225999227e-01,2.144401511483147726e-01,2.162993247395404717e-01,2.180524521257271586e-01,2.197341019040145449e-01,2.213031358089438683e-01,2.228341037408241021e-01,2.242779093146144431e-01,2.256471285565660734e-01,2.269502876965857618e-01,2.282114504977702796e-01,2.293828871131067537e-01,2.305169520400948691e-01,2.315931209827611914e-01,2.326062010669831259e-01,2.335806518107408636e-01,2.345010814683292089e-01,2.353472635749108699e-01,2.361605392830893324e-01,2.369092595807748558e-01,2.376061329218699947e-01,2.382582189168204190e-01,2.388326832334195793e-01,2.393685042009171537e-01,2.398439379489899215e-01,2.402556848016158542e-01,2.406028054399249605e-01,2.408891610930831151e-01,2.410882098677897822e-01,2.412295021720101962e-01,2.412922772175525310e-01,2.412871626473805931e-01,2.412024474550492348e-01,2.410505124576224900e-01,2.408317070669701021e-01,2.405281099970214831e-01,2.401558647432701643e-01,2.397286717919315524e-01,2.392384959122204058e-01,2.386712022065252126e-01,2.380543746636509805e-01,2.373765506121459090e-01,2.366643846500253723e-01,2.358880188245003340e-01,2.350462347165141463e-01,2.341555551686140824e-01,2.332274594476245189e-01,2.322364135202966695e-01,2.312171366890761193e-01,2.301269534184247345e-01,2.289854572126355514e-01,2.277793721883800138e-01,2.265240640545129747e-01,2.252020098751917332e-01,2.238327836477412569e-01,2.223724845576837139e-01,2.208176308127491050e-01,2.192288264138049503e-01,2.175297848230596798e-01,2.157610221420794561e-01,2.139030953783593036e-01,2.119112767866239977e-01,2.098378393358212857e-01,2.075917016965465600e-01,2.052310252499634502e-01,2.026872479820637785e-01,1.999850918439556868e-01,1.970984154975910507e-01,1.939245861856059294e-01,1.904052347573532422e-01,1.866250393348165282e-01,1.823531654931139223e-01,1.776525818420498504e-01,1.722529124064404449e-01,1.658493131808134735e-01,1.585176902736883386e-01,1.491728908091410344e-01,1.361802222513547045e-01,1.133084891733480565e-01,8.252379409066859517e-02,nan
nan,8.057288644624605034e-02,1.150146945378058005e-01,1.354492880004934952e-01,1.487362295966853931e-01,1.580100791433955987e-01,1.656686726062113479e-01,1.719362487178975052e-01,1.773402788157062981e-01,1.820517672627560424e-01,1.862655298543579863e-01,1.900492761187312640e-01,1.935111570866414332e-01,1.966868368619901775e-01,1.995987736934280443e-01,2.022825764009696103e-01,2.047871291334278365e-01,2.071500591124414703e-01,2.093508876059051449e-01,2.114388987468232561e-01,2.134028582083647152e-01,2.152356606234180625e-01,2.170014578078320044e-01,2.186573971460403221e-01,2.202467180978970318e-01,2.217436318120978578e-01,2.231897029582572134e-01,2.245470351489050609e-01,2.258606531349262037e-01,2.270919763308916484e-01,2.282756779382185686e-01,2.293936771843318179e-01,2.304629424152030426e-01,2.314751932075662377e-01,2.324233127218020001e-01,2.333240240357626338e-01,2.341599546985426716e-01,2.349556161063471871e-01,2.356779909930060146e-01,2.363707829874252542e-01,2.369955442653995936e-01,2.375561530409029953e-01,2.380720089922083726e-01,2.385308599934436724e-01,2.389243938773870646e-01,2.392635803698115182e-01,2.395281815411710868e-01,2.397343793244652299e-01,2.398634965649976969e-01,2.399225797277088068e-01,2.399152340968682406e-01,2.398270978196748726e-01,2.396975796499671296e-01,2.394782187216105140e-01,2.391823769766760199e-01,2.388258588169647756e-01,2.384168978439958619e-01,2.379309335862830332e-01,2.373964700418760565e-01,2.367994387873159357e-01,2.361521993665789410e-01,2.354424224821903000e-01,2.346724502839887538e-01,2.338558979979573071e-01,2.329886662821283039e-01,2.320616757244701178e-01,2.311041680936051224e-01,2.300799266711590629e-01,2.290085365350104651e-01,2.278673396088046754e-01,2.266884595957801563e-01,2.254394317464332997e-01,2.241121146632636951e-01,2.227548935484619519e-01,2.213024165733605830e-01,2.197632082471808190e-01,2.181752971170636268e-01,2.164827396429835904e-01,2.146925711365888501e-01,2.128539677452900014e-01,2.108765757065501623e-01,2.088122191855807386e-01,2.065811970562986544e-01,2.042249192909189048e-01,2.017040349605150884e-01,1.990054797758235017e-01,1.960828878516850393e-01,1.929120807157711504e-01,1.895108764335442508e-01,1.857028992848480109e-01,1.814474402646061857e-01,1.767466868480375708e-01,1.713459686152262740e-01,1.649179271398108770e-01,1.574339961084880168e-01,1.482556175495210460e-01,1.356900361133183686e-01,1.158404435566722235e-01,8.120324825823227455e-02,nan
nan,8.398455020274796234e-02,1.156073212904131786e-01,1.346924911556960369e-01,1.477925987535388674e-01,1.576166849372973855e-01,1.649246156703349786e-01,1.710622627424567554e-01,1.762708387085859529e-01,1.810570081874870452e-01,1.852286985290224897e-01,1.890171125452067835e-01,1.924694774631806327e-01,1.956439218502492583e-01,1.985244917469332071e-01,2.012057350081504215e-01,2.036963421195002177e-01,2.060560161282026792e-01,2.082454090539028746e-01,2.103137402905264353e-01,2.122731035193904658e-01,2.141260148301720456e-01,2.158637320040405205e-01,2.175386100439941628e-01,2.191126594332821198e-01,2.206060200793504289e-01,2.220375810662035543e-01,2.234081891613268200e-01,2.246959921761000900e-01,2.259275109837786677e-01,2.271141510606657921e-01,2.282116909701211172e-01,2.292700956918944655e-01,2.302745419537407801e-01,2.312165404763609211e-01,2.320953889104158674e-01,2.329304218043019570e-01,2.336888748916526315e-01,2.344267220170970223e-01,2.350811556644792355e-01,2.357070760787048358e-01,2.362542838265922762e-01,2.367300499553597892e-01,2.371769126936406902e-01,2.375688799007349417e-01,2.378970616308047348e-01,2.381496313626170758e-01,2.383479477573020588e-01,2.384808239340431291e-01,2.385372625729382245e-01,2.385285146753887142e-01,2.384542011800423467e-01,2.383191421703395041e-01,2.381111489776797929e-01,2.378229167529188615e-01,2.374805141070153724e-01,2.370777414653550685e-01,2.366105252002905224e-01,2.360930213070005224e-01,2.355062358849513982e-01,2.348699631832143753e-01,2.341691736428737070e-01,2.334360653383024398e-01,2.326338911424603584e-01,2.317665318485334081e-01,2.308890237677072577e-01,2.299274590440892052e-01,2.289125835902283412e-01,2.278403516097542991e-01,2.267047982094366476e-01,2.255190593458479553e-01,2.242850730746446253e-01,2.229702245551029305e-01,2.216039811813730886e-01,2.201615777891234860e-01,2.186506538152059032e-01,2.170654710402673548e-01,2.153776968982717421e-01,2.136109917469096731e-01,2.117669453547058878e-01,2.098028256775015254e-01,2.076907080140428796e-01,2.055234396698786270e-01,2.031267453203387530e-01,2.006638682889410052e-01,1.979750073568852797e-01,1.950739177597362872e-01,1.919147364620370777e-01,1.885008881992809027e-01,1.846713493975586928e-01,1.804979048589389901e-01,1.756722970883504709e-01,1.704192105844520022e-01,1.640724563486419540e-01,1.565823779816585548e-01,1.474786089906826025e-01,1.342417785068667491e-01,1.163034742026052004e-01,8.173604039062112858e-02,nan
nan,8.138040981573037291e-02,1.148192033405958934e-01,1.342869532643079789e-01,1.472043420081227127e-01,1.567030745994986152e-01,1.640544920095614034e-01,1.700223980895737563e-01,1.752648916789354139e-01,1.799541695972199096e-01,1.841743036467362871e-01,1.879043350033269555e-01,1.913677134114829259e-01,1.944836087755431042e-01,1.973836899905903608e-01,2.000524944292552121e-01,2.025571716497993613e-01,2.049087515163157125e-01,2.071152827824787324e-01,2.091550069708760229e-01,2.111048816392992467e-01,2.129531148582397559e-01,2.146773261081315609e-01,2.163348423483376637e-01,2.179198275619912972e-01,2.194109748557614425e-01,2.208341904876437167e-01,2.222065024843619674e-01,2.234886744652847257e-01,2.247046074574728936e-01,2.258729713353350155e-01,2.269674591688656817e-01,2.280227343157452125e-01,2.290098142054745323e-01,2.299482987254988786e-01,2.308249161518386994e-01,2.316594554369872938e-01,2.324124012896818803e-01,2.331254363264186336e-01,2.337706269446829799e-01,2.343706398129851154e-01,2.349099356162300811e-01,2.353908735296334209e-01,2.358228107811830565e-01,2.361919291834522205e-01,2.365124805127966079e-01,2.367598445827873432e-01,2.369485135530323694e-01,2.370718246000163010e-01,2.371344000292248677e-01,2.371286949412268474e-01,2.370365370227811019e-01,2.369138823686604556e-01,2.367089809871442685e-01,2.364326938005267831e-01,2.361059042406723485e-01,2.357087556324318212e-01,2.352608799865896771e-01,2.347498483011210557e-01,2.341792529130788947e-01,2.335437504889677773e-01,2.328649009302724004e-01,2.321342076597535664e-01,2.313568376460183318e-01,2.305125073197905605e-01,2.296139281196356574e-01,2.286738431081004053e-01,2.276814973468491710e-01,2.266216957377268360e-01,2.254819340475029965e-01,2.243119925142181559e-01,2.230803184327039834e-01,2.217690147277084356e-01,2.204040237553075987e-01,2.189823238223370105e-01,2.174734612974222325e-01,2.158751317548936455e-01,2.142142494337508640e-01,2.124594120275927756e-01,2.105995894019740966e-01,2.086622279343899322e-01,2.066156960507594953e-01,2.043783963665264936e-01,2.020367301140560401e-01,1.995042156609405370e-01,1.968768300610375943e-01,1.939482135162220733e-01,1.908054943375718238e-01,1.873600799479359091e-01,1.836323925764863640e-01,1.794315791195787990e-01,1.746006451267715642e-01,1.694616666197349963e-01,1.633284901510540787e-01,1.562083078011688442e-01,1.472391513868520907e-01,1.338975298257425450e-01,1.161109943503887548e-01,8.316004437805069038e-02,nan
nan,8.220451629769977286e-02,1.163463288980369353e-01,1.348646059286260634e-01,1.467085020183605537e-01,1.556769944777414427e-01,1.629610155411490569e-01,1.690146159401176573e-01,1.742235262640506877e-01,1.788458816539748031e-01,1.829984768552583574e-01,1.867433629873008760e-01,1.901216859522776859e-01,1.933053877092457684e-01,1.961923263490124303e-01,1.988562029478532778e-01,2.013718366764180867e-01,2.036960109867498869e-01,2.058667334486853628e-01,2.079244506933506653e-01,2.098702010027089782e-01,2.116980930265282557e-01,2.134279170935408920e-01,2.150880201897500954e-01,2.166621740145093511e-01,2.181566149610359995e-01,2.195679941986374839e-01,2.209268041497246815e-01,2.222117948292881562e-01,2.234262639398001404e-01,2.245717872639940160e-01,2.256762342497636298e-01,2.267096189896326552e-01,2.277019528983939556e-01,2.286168116428679009e-01,2.294853533029353743e-01,2.303068315927514487e-01,2.310663362845243318e-01,2.317625768823786403e-01,2.324019231456158630e-01,2.330074401570675913e-01,2.335350431696051332e-01,2.339985978971119707e-01,2.344176546232645264e-01,2.347875909254913129e-01,2.350894434712552106e-01,2.353392501983824769e-01,2.355214785026298330e-01,2.356391698654734523e-01,2.356927262892545560e-01,2.356938294063151973e-01,2.356051388231817645e-01,2.354803295159583199e-01,2.352739435066551754e-01,2.350258946400285986e-01,2.346961231413399740e-01,2.343173483957317615e-01,2.338669906992922043e-01,2.333714913657880807e-01,2.328129091270056961e-01,2.321861880818073265e-01,2.315104079773876444e-01,2.307956202292666958e-01,2.300108479775809511e-01,2.291870020493484428e-01,2.283120321170633016e-01,2.273745818015911468e-01,2.263741641405790372e-01,2.253226342943158989e-01,2.242044042288825756e-01,2.230509892376381642e-01,2.218105591683540434e-01,2.205035496671846618e-01,2.191553613160817093e-01,2.177336777778947907e-01,2.162106376393429785e-01,2.146463821286980767e-01,2.129869250926460789e-01,2.112259924009893819e-01,2.093809610600789461e-01,2.074822245644613872e-01,2.054008996497888595e-01,2.032077808994518231e-01,2.008337646012539057e-01,1.983483064005647778e-01,1.956480205129389194e-01,1.927970059307425599e-01,1.896471353842656971e-01,1.861729196827497934e-01,1.824605446896568339e-01,1.783223349813077563e-01,1.736921488237915534e-01,1.684293489388038745e-01,1.623635409373899718e-01,1.553971006417068923e-01,1.465760004476172329e-01,1.348850354688469200e-01,1.150916389646766957e-01,8.293936011254242346e-02,nan
nan,8.303512152872466467e-02,1.154946456657914150e-01,1.336207793039091984e-01,1.459150904854424613e-01,1.546348536479523750e-01,1.618516532251804418e-01,1.678088875113965261e-01,1.730502835693969454e-01,1.775932427714906892e-01,1.817922709159396077e-01,1.854533573214514064e-01,1.889092348680037892e-01,1.920098179450715759e-01,1.949223043266374022e-01,1.975923700633325508e-01,2.000707099066920958e-01,2.024090721814093552e-01,2.045884093645569113e-01,2.066386561250198595e-01,2.085591449442029954e-01,2.104020843719043299e-01,2.121190450440881281e-01,2.137590143522219988e-01,2.153377336144111920e-01,2.168183970361683977e-01,2.182385796643313003e-01,2.195791493539805961e-01,2.208461556531702286e-01,2.220687522034476280e-01,2.232331845940995485e-01,2.243095948046787136e-01,2.253393075011011770e-01,2.263194265870121513e-01,2.272445763963307219e-01,2.280958432666154723e-01,2.289098314389052258e-01,2.296548280243853046e-01,2.303534288393781493e-01,2.310027568130265940e-01,2.315774133045603866e-01,2.321040208245728487e-01,2.325776903793168315e-01,2.329739555626297309e-01,2.333322097489460289e-01,2.336315941003741792e-01,2.338729801584791268e-01,2.340524518392436693e-01,2.341609891243458252e-01,2.342231761125388445e-01,2.342045919511663299e-01,2.341317886915114943e-01,2.340059035099665563e-01,2.338213325887319727e-01,2.335567844426700845e-01,2.332373137211430358e-01,2.328676832557058374e-01,2.324314642078316451e-01,2.319477317693385554e-01,2.313936961695081396e-01,2.307803588273956430e-01,2.301239745684302562e-01,2.294026347477808314e-01,2.286416113926951488e-01,2.278246490747874997e-01,2.269437001950660449e-01,2.260146927079441648e-01,2.250150920959257950e-01,2.239642928448634107e-01,2.228716436155913083e-01,2.216937394272018025e-01,2.204804454255408497e-01,2.191785919521207493e-01,2.178342765937066605e-01,2.164052938477074584e-01,2.149138885839275148e-01,2.133445284294828714e-01,2.116926780087852178e-01,2.099439905291303754e-01,2.081133213174369279e-01,2.062157074630101838e-01,2.040954986910621660e-01,2.019025748757931338e-01,1.995916645454084981e-01,1.970712508341973812e-01,1.944164598111484121e-01,1.915101318006645903e-01,1.884072686245911177e-01,1.849778397532499397e-01,1.812669608688437795e-01,1.771725599949560970e-01,1.725613973945283597e-01,1.673412532799506414e-01,1.614851274776664403e-01,1.542053089694923051e-01,1.456126053714549562e-01,1.339921776452884794e-01,1.148589921659697588e-01,8.238998813744800864e-02,nan
nan,8.302751913344999513e-02,1.160721339119987761e-01,1.333123397617734796e-01,1.450439709257858589e-01,1.533802591943456695e-01,1.606298661755495294e-01,1.667377350850009488e-01,1.718522403422932388e-01,1.764009419576128002e-01,1.804633709247480677e-01,1.842188764786253374e-01,1.875832114946097695e-01,1.907039950343947243e-01,1.935728384519207756e-01,1.962439940123258675e-01,1.987100556491132597e-01,2.010492357407267228e-01,2.032013287280351466e-01,2.052683215476565348e-01,2.072103162186924030e-01,2.090260704953132986e-01,2.107640517862534590e-01,2.123852419066532271e-01,2.139406185722936837e-01,2.154249309645642485e-01,2.168424166582325896e-01,2.181618189441074662e-01,2.194392610709289537e-01,2.206409753192681289e-01,2.217946650113371276e-01,2.228865631356038712e-01,2.239035078202166185e-01,2.248757268414736943e-01,2.257897112878620161e-01,2.266666540397015983e-01,2.274686201753274295e-01,2.282003004922408262e-01,2.288921260200576513e-01,2.295246428422094975e-01,2.301125708218585975e-01,2.306236421370412848e-01,2.310873609748352320e-01,2.314906955969940616e-01,2.318286969147873855e-01,2.321235931458636159e-01,2.323624948594104900e-01,2.325222520973267981e-01,2.326423770263193747e-01,2.326916851541109832e-01,2.326874828176810628e-01,2.326195122133877802e-01,2.324921692848030963e-01,2.322876522308310876e-01,2.320432240748108998e-01,2.317381945957006362e-01,2.313640474780322420e-01,2.309490952989434742e-01,2.304542611473945068e-01,2.298896416106459561e-01,2.293031181416914921e-01,2.286678394005907666e-01,2.279569597093972777e-01,2.271997870972745914e-01,2.263844314468015928e-01,2.255159607086239804e-01,2.245859495205091427e-01,2.236039406046482214e-01,2.225669457209612234e-01,2.214557697632519306e-01,2.203122170644077893e-01,2.190756551340875546e-01,2.177977604787488808e-01,2.164391978709731545e-01,2.150218956515903834e-01,2.135203598593508334e-01,2.119626126642753516e-01,2.103396738193246129e-01,2.085888418408053668e-01,2.067604207682102735e-01,2.048415090399783034e-01,2.027908264604830479e-01,2.005712720905471480e-01,1.982371823220448470e-01,1.957724191078088483e-01,1.930717463707994352e-01,1.901999698437261688e-01,1.870860768957246512e-01,1.837144953434104999e-01,1.799176949903247558e-01,1.758899519826888636e-01,1.712523209381707767e-01,1.662124870615184768e-01,1.605307952316677167e-01,1.531286510154685754e-01,1.444683252500834070e-01,1.326967209114652269e-01,1.151319397147866352e-01,8.297392511264864434e-02,nan
nan,8.217815973649521266e-02,1.149447106516640060e-01,1.324409435682409597e-01,1.435494251466998272e-01,1.524390422923292410e-01,1.595605548438512877e-01,1.654053505087045295e-01,1.704306654136358845e-01,1.750198627070346236e-01,1.790618793840476897e-01,1.828280870666141311e-01,1.861777735400034217e-01,1.892225622196469503e-01,1.921561843644546963e-01,1.948129468042459345e-01,1.972598785998073700e-01,1.996292777029097520e-01,2.018068727668469176e-01,2.038223167575076711e-01,2.057582324271684526e-01,2.075874506776219652e-01,2.092925211546014241e-01,2.109342647346815203e-01,2.124778759921242544e-01,2.139594231407054292e-01,2.153555021620899290e-01,2.167006391809321864e-01,2.179561226668660923e-01,2.191595148209550814e-01,2.203080777145089431e-01,2.213759278511875928e-01,2.224124597186974417e-01,2.233740430762581330e-01,2.242800962842627366e-01,2.251476849730141838e-01,2.259415463009633029e-01,2.266884024269132381e-01,2.273542476497855402e-01,2.279869011279207214e-01,2.285540866195687471e-01,2.290780653667245370e-01,2.295222571503907349e-01,2.299393198480300660e-01,2.302829029524531279e-01,2.305548256399452267e-01,2.307805626896962670e-01,2.309651973075936560e-01,2.310698242836650707e-01,2.311220638085314805e-01,2.311012822132255118e-01,2.310356505580049291e-01,2.308925134554760672e-01,2.307216082763980380e-01,2.304620722918916398e-01,2.301514157058902887e-01,2.297881885149774539e-01,2.293786124526916437e-01,2.289024826963227122e-01,2.283712004609584345e-01,2.277725373849054380e-01,2.271382297924044447e-01,2.264396757755713363e-01,2.256863722419733820e-01,2.248720845688774173e-01,2.240061907734541280e-01,2.230853116775411427e-01,2.221118556284302215e-01,2.210725079897478684e-01,2.199851531180954667e-01,2.188437327035665514e-01,2.176178077090092644e-01,2.163450783745620998e-01,2.149946652470900998e-01,2.135875233490198422e-01,2.120987805176507146e-01,2.105279501963006616e-01,2.088724277579499244e-01,2.071581969430242864e-01,2.053282845353632258e-01,2.033994804458245931e-01,2.013446934225585627e-01,1.991445314648762066e-01,1.968290212984795395e-01,1.943529290520265851e-01,1.916656045207890680e-01,1.886993108300557553e-01,1.856752651688890199e-01,1.823232340332509860e-01,1.785716035250183020e-01,1.745544696086994418e-01,1.700182184404661623e-01,1.648858171206026291e-01,1.592024103796272905e-01,1.522236872443925026e-01,1.437719679148755092e-01,1.317807394612994232e-01,1.123392019867411329e-01,8.188678105706861943e-02,nan
nan,8.178862316119904496e-02,1.140660280579079700e-01,1.307662469333757960e-01,1.428499713892466827e-01,1.512251252883274055e-01,1.581493924625888559e-01,1.639644283649271117e-01,1.691204496258309486e-01,1.735934093894675179e-01,1.776480920405523189e-01,1.813343670680174213e-01,1.846895166657887555e-01,1.877390422927832092e-01,1.906226612577089918e-01,1.932967384131583088e-01,1.957840924634886570e-01,1.980830514413001731e-01,2.002695700898072251e-01,2.022853233870884893e-01,2.042347685787437028e-01,2.060467761183353841e-01,2.077641319047705548e-01,2.094078095291072583e-01,2.109478599514003072e-01,2.124194237493952087e-01,2.138124674265014513e-01,2.151312180356613202e-01,2.164102478467511137e-01,2.176052518766845578e-01,2.187227638113237171e-01,2.198081534493066258e-01,2.208121510859290260e-01,2.217927036482289227e-01,2.226842412861733123e-01,2.235480846888327211e-01,2.243494528718284198e-01,2.250832238684954412e-01,2.257513335580857705e-01,2.263868437310268267e-01,2.269404541743927084e-01,2.274467697808625621e-01,2.279095537639276026e-01,2.283140334403555294e-01,2.286415589937070281e-01,2.289202183081576192e-01,2.291639276743976383e-01,2.293317828458042995e-01,2.294158285821042975e-01,2.294755228629896115e-01,2.294663821017780547e-01,2.293797778223301553e-01,2.292544948576249464e-01,2.290780501674144487e-01,2.288359201416118593e-01,2.285154768070082887e-01,2.281729657528193955e-01,2.277402491340833057e-01,2.272823036172613997e-01,2.267667929057699816e-01,2.261752172107859005e-01,2.255427273579802550e-01,2.248537760900771176e-01,2.241045188120185938e-01,2.233076169018526347e-01,2.224389188925419703e-01,2.215200723744868982e-01,2.205421829015835611e-01,2.195233208655116286e-01,2.184212272867692706e-01,2.172896822356086555e-01,2.160765688672700580e-01,2.148075001624674685e-01,2.134771704491653932e-01,2.120738258007330013e-01,2.105686992498222720e-01,2.090165406769972922e-01,2.073730042532466178e-01,2.056510080667673102e-01,2.037934874180718225e-01,2.018941902897102847e-01,1.998392131831230045e-01,1.976504882352055903e-01,1.952908560113843506e-01,1.928581448981145918e-01,1.901759634803339705e-01,1.872889214017716131e-01,1.841641255940594801e-01,1.808040006291423696e-01,1.771490421266012361e-01,1.730587911015327440e-01,1.685420371645847126e-01,1.635277963901712595e-01,1.575443293179829563e-01,1.510325078843182678e-01,1.424355492315055871e-01,1.301185599282451699e-01,1.123653275619947434e-01,7.978176440152451310e-02,nan
nan,8.138449281596601970e-02,1.125383843858209498e-01,1.299037677730555118e-01,1.408226515078509489e-01,1.500738129900109352e-01,1.567504721295258086e-01,1.624706869019179600e-01,1.675745060851935309e-01,1.720619428250780847e-01,1.760802192704894464e-01,1.797122883846625774e-01,1.831068000677182617e-01,1.861916924376308957e-01,1.889957777342435863e-01,1.916837497192013240e-01,1.941818731343440962e-01,1.964875238154442649e-01,1.986291995308435143e-01,2.007148062939290711e-01,2.026239981088575060e-01,2.044349063043013059e-01,2.061526186762298041e-01,2.077860826093802793e-01,2.093366962855100766e-01,2.107832419991199913e-01,2.121616811891725018e-01,2.134915921998015720e-01,2.147494065318880097e-01,2.159590961520944652e-01,2.170727063607930107e-01,2.181525655205168446e-01,2.191596956267028995e-01,2.201032054091539014e-01,2.210273644776476476e-01,2.218558202354825593e-01,2.226633571111837351e-01,2.233818783488667470e-01,2.240635366312731525e-01,2.246884096991473290e-01,2.252566749726430673e-01,2.257643514272532070e-01,2.262029361278685147e-01,2.265892138301909831e-01,2.269205061813125424e-01,2.272067352870859591e-01,2.274407707744273421e-01,2.275930967661785043e-01,2.276950051704312861e-01,2.277365569815836266e-01,2.277251766149289702e-01,2.276739443472873548e-01,2.275260579051274212e-01,2.273599722684449820e-01,2.271156542289009261e-01,2.268112765997801206e-01,2.264642233623886947e-01,2.260653642607415026e-01,2.255807544332150139e-01,2.250582658859642815e-01,2.244910043725260040e-01,2.238618886188279977e-01,2.231898721633019667e-01,2.224510951641463508e-01,2.216382886620608117e-01,2.207835193568902232e-01,2.198660013165684435e-01,2.189097201508421742e-01,2.178769736417231206e-01,2.168059845968147159e-01,2.156300457493571243e-01,2.144634874139204339e-01,2.131869993598168311e-01,2.118578305000771711e-01,2.104550536089978829e-01,2.089800063153962606e-01,2.074054230729048265e-01,2.057893938010627866e-01,2.040354119965235302e-01,2.022253684413156394e-01,2.002749336876701314e-01,1.982240894491655858e-01,1.960247169310834758e-01,1.937100419820834418e-01,1.912380353895010154e-01,1.885883066102320704e-01,1.856636573786069055e-01,1.826136907730669667e-01,1.792561489633967553e-01,1.755929669159239370e-01,1.716063222382543663e-01,1.671092220922066884e-01,1.620252586958681740e-01,1.563229783145987650e-01,1.494636692730579308e-01,1.409260627521666254e-01,1.289670076254335329e-01,1.128339850746803152e-01,8.214087995949409526e-02,nan
nan,7.982318221033200822e-02,1.126572313716023982e-01,1.291308517471185524e-01,1.399098716305403334e-01,1.482548441611112877e-01,1.552297681248493155e-01,1.609307785319785689e-01,1.659375722695366207e-01,1.703299694525768071e-01,1.744582391010637279e-01,1.780501499242237995e-01,1.813462988433642287e-01,1.844667584207869693e-01,1.873323378336749778e-01,1.899414689148396229e-01,1.924261672246642130e-01,1.947512201388237330e-01,1.969186178473239512e-01,1.989883906510292455e-01,2.009073642583943109e-01,2.027226074504279163e-01,2.044328309211395078e-01,2.060749175170041303e-01,2.076138621849029364e-01,2.090887255601384387e-01,2.104675973654995813e-01,2.117677795457882928e-01,2.130343541565465348e-01,2.142142451693450078e-01,2.153203117964754276e-01,2.163986940972624506e-01,2.173942397533200899e-01,2.183617198750726074e-01,2.192541757843175787e-01,2.201023542873242755e-01,2.208803351460877085e-01,2.216147382374918373e-01,2.222770360173530746e-01,2.229006275600146081e-01,2.234588519424507425e-01,2.239792253956363888e-01,2.243879345985796137e-01,2.247953253154611475e-01,2.251266623326425576e-01,2.254059429486788835e-01,2.256037296255469782e-01,2.257726475635186136e-01,2.258754563177794161e-01,2.259307817768930748e-01,2.259210438569132506e-01,2.258614808475558067e-01,2.257311169596859235e-01,2.255447731857903315e-01,2.252930001165614482e-01,2.250051252336427166e-01,2.246836604244723534e-01,2.242694565592842637e-01,2.238108046217405223e-01,2.232815046927867086e-01,2.227178805168680553e-01,2.220750202457831557e-01,2.214258552467296692e-01,2.206822002694237561e-01,2.198971631847065344e-01,2.190258168180834741e-01,2.181063061108800549e-01,2.171580442201563599e-01,2.161606822344772638e-01,2.150609316106634195e-01,2.139329790931275288e-01,2.127481685719989635e-01,2.114703712862022744e-01,2.101411043877934315e-01,2.087497274042571238e-01,2.072497690322030184e-01,2.057222627016017658e-01,2.040921699656751409e-01,2.023472647923748591e-01,2.005094425332464569e-01,1.985771530953531205e-01,1.965109750737009942e-01,1.943295283721429012e-01,1.919881299968707600e-01,1.895321994034794288e-01,1.869038051551372426e-01,1.840155389304976019e-01,1.809526925473572412e-01,1.775247661784453979e-01,1.739600802169442018e-01,1.699966736845760773e-01,1.654336856521279597e-01,1.604350804192352653e-01,1.547434403264562053e-01,1.478532315622441140e-01,1.390985096321469827e-01,1.278714569284981895e-01,1.124000192790891722e-01,8.334467275220820703e-02,nan
nan,7.717803825962585296e-02,1.119250889518512704e-01,1.281349061965204872e-01,1.388007582345113511e-01,1.470829035209963997e-01,1.536161851028678138e-01,1.592960290798818290e-01,1.643055643740009009e-01,1.687331094173394330e-01,1.726319726007794764e-01,1.762575673258790498e-01,1.795659835145513583e-01,1.826110283795377154e-01,1.854825173466449761e-01,1.881161296303774377e-01,1.905855272579772275e-01,1.929257833975727698e-01,1.951038830132989510e-01,1.971135454821665023e-01,1.990743198530957603e-01,2.008715171916874986e-01,2.026191099604195411e-01,2.042442422977396310e-01,2.057735864431332329e-01,2.072524131157172378e-01,2.086387673914600338e-01,2.099455311189354634e-01,2.112022488516105412e-01,2.123825655164099380e-01,2.134909703273602521e-01,2.145299264162188191e-01,2.155457319207654265e-01,2.164912736428698525e-01,2.173666040134532851e-01,2.182105741075873739e-01,2.189955422458771395e-01,2.197147129661348175e-01,2.203854595975243691e-01,2.209850652432906737e-01,2.215662502629429098e-01,2.220602002358636751e-01,2.224640886459440248e-01,2.228733714770612107e-01,2.232131419119529891e-01,2.234792350088014024e-01,2.237017385602239061e-01,2.238694787209168924e-01,2.239604031366237979e-01,2.239991749926521503e-01,2.240131356007850072e-01,2.239496220812052796e-01,2.237947749190832281e-01,2.236390469311502760e-01,2.234062085054079605e-01,2.231090981327366607e-01,2.227779993916823853e-01,2.223667351839368755e-01,2.219208021755613713e-01,2.213941173717018374e-01,2.208233202924629324e-01,2.202178117080990927e-01,2.195267561249648336e-01,2.188024692399421767e-01,2.180266088654830292e-01,2.171768101275705909e-01,2.162553785342278545e-01,2.153055767657928166e-01,2.143263065419779012e-01,2.132416470319325186e-01,2.121048944642943967e-01,2.109051456950826742e-01,2.096493628201181736e-01,2.083325828469043128e-01,2.069239066640934932e-01,2.054665397862610876e-01,2.038929108489031250e-01,2.022849482962809087e-01,2.005182151747549324e-01,1.986984048176483331e-01,1.967628777948033370e-01,1.946697934311030775e-01,1.925043513248818339e-01,1.901842381040093899e-01,1.876914465314787617e-01,1.850321489148521736e-01,1.822020700824115991e-01,1.791123771368718087e-01,1.758053426593874091e-01,1.721734880382854438e-01,1.681715201465296128e-01,1.637801206384342234e-01,1.588638816075256255e-01,1.532070078734423246e-01,1.463134351212659334e-01,1.380066622135678323e-01,1.265679217388241684e-01,1.074165067967486342e-01,8.091234013084094845e-02,nan
