nan,0.000000000000000000e+00,0.000000000000000000e+00,0.000000000000000000e+00,0.000000000000000000e+00,0.000000000000000000e+00,0.000000000000000000e+00,0.000000000000000000e+00,0.000000000000000000e+00,0.000000000000000000e+00,0.000000000000000000e+00,0.000000000000000000e+00,0.000000000000000000e+00,0.000000000000000000e+00,0.000000000000000000e+00,0.000000000000000000e+00,0.000000000000000000e+00,0.000000000000000000e+00,0.000000000000000000e+00,0.000000000000000000e+00,0.000000000000000000e+00,0.000000000000000000e+00,0.000000000000000000e+00,0.000000000000000000e+00,0.000000000000000000e+00,0.000000000000000000e+00,0.000000000000000000e+00,0.000000000000000000e+00,0.000000000000000000e+00,0.000000000000000000e+00,0.000000000000000000e+00,0.000000000000000000e+00,0.000000000000000000e+00,0.000000000000000000e+00,0.000000000000000000e+00,0.000000000000000000e+00,0.000000000000000000e+00,0.000000000000000000e+00,0.000000000000000000e+00,0.000000000000000000e+00,0.000000000000000000e+00,0.000000000000000000e+00,0.000000000000000000e+00,0.000000000000000000e+00,0.000000000000000000e+00,4.230189364751624215e-02,2.525045609943633584e-01,2.541529635906594753e-01,2.545719487368341971e-01,2.532695387965459011e-01,2.532986555529139205e-01,2.533602803345487153e-01,2.519289277942045047e-01,2.509942578038368843e-01,1.681788107132554666e-01,0.000000000000000000e+00,0.000000000000000000e+00,0.000000000000000000e+00,0.000000000000000000e+00,0.000000000000000000e+00,0.000000000000000000e+00,0.000000000000000000e+00,0.000000000000000000e+00,0.000000000000000000e+00,0.000000000000000000e+00,0.000000000000000000e+00,0.000000000000000000e+00,0.000000000000000000e+00,0.000000000000000000e+00,0.000000000000000000e+00,0.000000000000000000e+00,0.000000000000000000e+00,0.000000000000000000e+00,0.000000000000000000e+00,0.000000000000000000e+00,0.000000000000000000e+00,0.000000000000000000e+00,0.000000000000000000e+00,0.000000000000000000e+00,0.000000000000000000e+00,0.000000000000000000e+00,0.000000000000000000e+00,0.000000000000000000e+00,0.000000000000000000e+00,0.000000000000000000e+00,0.000000000000000000e+00,0.000000000000000000e+00,0.000000000000000000e+00,0.000000000000000000e+00,0.000000000000000000e+00,0.000000000000000000e+00,0.000000000000000000e+00,0.000000000000000000e+00,0.000000000000000000e+00,0.000000000000000000e+00,0.000000000000000000e+00,0.000000000000000000e+00,0.000000000000000000e+00,0.000000000000000000e+00,nan
nan,0.000000000000000000e+00,0.000000000000000000e+00,0.000000000000000000e+00,0.000000000000000000e+00,0.000000000000000000e+00,0.000000000000000000e+00,0.000000000000000000e+00,0.000000000000000000e+00,0.000000000000000000e+00,0.000000000000000000e+00,0.000000000000000000e+00,0.000000000000000000e+00,0.000000000000000000e+00,0.000000000000000000e+00,0.000000000000000000e+00,0.000000000000000000e+00,0.000000000000000000e+00,0.000000000000000000e+00,0.000000000000000000e+00,0.000000000000000000e+00,0.000000000000000000e+00,0.000000000000000000e+00,0.000000000000000000e+00,0.000000000000000000e+00,0.000000000000000000e+00,0.000000000000000000e+00,0.000000000000000000e+00,0.000000000000000000e+00,0.000000000000000000e+00,0.000000000000000000e+00,0.000000000000000000e+00,0.000000000000000000e+00,0.000000000000000000e+00,0.000000000000000000e+00,0.000000000000000000e+00,0.000000000000000000e+00,0.000000000000000000e+00,0.000000000000000000e+00,0.000000000000000000e+00,0.000000000000000000e+00,0.000000000000000000e+00,0.000000000000000000e+00,0.000000000000000000e+00,0.000000000000000000e+00,1.824135760732064626e-01,2.418518536009184317e-01,2.504284066639391737e-01,2.517322714092389280e-01,2.526313967879015299e-01,2.535631947181550272e-01,2.556302320496398606e-01,2.559028554576578962e-01,2.541541240249205469e-01,9.062295185062402281e-02,0.000000000000000000e+00,0.000000000000000000e+00,0.000000000000000000e+00,0.000000000000000000e+00,0.000000000000000000e+00,0.000000000000000000e+00,0.000000000000000000e+00,0.000000000000000000e+00,0.000000000000000000e+00,0.000000000000000000e+00,0.000000000000000000e+00,0.000000000000000000e+00,0.000000000000000000e+00,0.000000000000000000e+00,0.000000000000000000e+00,0.000000000000000000e+00,0.000000000000000000e+00,0.000000000000000000e+00,0.000000000000000000e+00,0.000000000000000000e+00,0.000000000000000000e+00,0.000000000000000000e+00,0.000000000000000000e+00,0.000000000000000000e+00,0.000000000000000000e+00,0.000000000000000000e+00,0.000000000000000000e+00,0.000000000000000000e+00,0.000000000000000000e+00,0.000000000000000000e+00,0.000000000000000000e+00,0.000000000000000000e+00,0.000000000000000000e+00,0.000000000000000000e+00,0.000000000000000000e+00,0.000000000000000000e+00,0.000000000000000000e+00,0.000000000000000000e+00,0.000000000000000000e+00,0.000000000000000000e+00,0.000000000000000000e+00,0.000000000000000000e+00,0.000000000000000000e+00,0.000000000000000000e+00,nan
nan,0.000000000000000000e+00,0.000000000000000000e+00,0.000000000000000000e+00,0.000000000000000000e+00,0.000000000000000000e+00,0.000000000000000000e+00,0.000000000000000000e+00,0.000000000000000000e+00,0.000000000000000000e+00,0.000000000000000000e+00,0.000000000000000000e+00,0.000000000000000000e+00,0.000000000000000000e+00,0.000000000000000000e+00,0.000000000000000000e+00,0.000000000000000000e+00,0.000000000000000000e+00,0.000000000000000000e+00,0.000000000000000000e+00,0.000000000000000000e+00,0.000000000000000000e+00,0.000000000000000000e+00,0.000000000000000000e+00,0.000000000000000000e+00,0.000000000000000000e+00,0.000000000000000000e+00,0.000000000000000000e+00,0.000000000000000000e+00,0.000000000000000000e+00,0.000000000000000000e+00,0.000000000000000000e+00,0.000000000000000000e+00,0.000000000000000000e+00,0.000000000000000000e+00,0.000000000000000000e+00,0.000000000000000000e+00,0.000000000000000000e+00,0.000000000000000000e+00,0.000000000000000000e+00,0.000000000000000000e+00,0.000000000000000000e+00,0.000000000000000000e+00,0.000000000000000000e+00,0.000000000000000000e+00,1.081355422813580630e-01,2.479049060979369723e-01,2.490302342441517158e-01,2.513068913368425306e-01,2.534825055446280895e-01,2.567563420981019973e-01,2.583090580478697995e-01,2.585037672229014150e-01,2.597112946231123765e-01,1.868527063616701178e-01,0.000000000000000000e+00,0.000000000000000000e+00,0.000000000000000000e+00,0.000000000000000000e+00,0.000000000000000000e+00,0.000000000000000000e+00,0.000000000000000000e+00,0.000000000000000000e+00,0.000000000000000000e+00,0.000000000000000000e+00,0.000000000000000000e+00,0.000000000000000000e+00,0.000000000000000000e+00,0.000000000000000000e+00,0.000000000000000000e+00,0.000000000000000000e+00,0.000000000000000000e+00,0.000000000000000000e+00,0.000000000000000000e+00,0.000000000000000000e+00,0.000000000000000000e+00,0.000000000000000000e+00,0.000000000000000000e+00,0.000000000000000000e+00,0.000000000000000000e+00,0.000000000000000000e+00,0.000000000000000000e+00,0.000000000000000000e+00,0.000000000000000000e+00,0.000000000000000000e+00,0.000000000000000000e+00,0.000000000000000000e+00,0.000000000000000000e+00,0.000000000000000000e+00,0.000000000000000000e+00,0.000000000000000000e+00,0.000000000000000000e+00,0.000000000000000000e+00,0.000000000000000000e+00,0.000000000000000000e+00,0.000000000000000000e+00,0.000000000000000000e+00,0.000000000000000000e+00,0.000000000000000000e+00,nan
nan,0.000000000000000000e+00,0.000000000000000000e+00,0.000000000000000000e+00,0.000000000000000000e+00,0.000000000000000000e+00,0.000000000000000000e+00,0.000000000000000000e+00,0.000000000000000000e+00,0.000000000000000000e+00,0.000000000000000000e+00,0.000000000000000000e+00,0.000000000000000000e+00,0.000000000000000000e+00,0.000000000000000000e+00,0.000000000000000000e+00,0.000000000000000000e+00,0.000000000000000000e+00,0.000000000000000000e+00,0.000000000000000000e+00,0.000000000000000000e+00,0.000000000000000000e+00,0.000000000000000000e+00,0.000000000000000000e+00,0.000000000000000000e+00,0.000000000000000000e+00,0.000000000000000000e+00,0.000000000000000000e+00,0.000000000000000000e+00,0.000000000000000000e+00,0.000000000000000000e+00,0.000000000000000000e+00,0.000000000000000000e+00,0.000000000000000000e+00,0.000000000000000000e+00,0.000000000000000000e+00,0.000000000000000000e+00,0.000000000000000000e+00,0.000000000000000000e+00,0.000000000000000000e+00,0.000000000000000000e+00,0.000000000000000000e+00,0.000000000000000000e+00,0.000000000000000000e+00,0.000000000000000000e+00,1.558400839384885828e-01,2.506278116635465847e-01,2.481437888088393884e-01,2.511581079075336786e-01,2.537392495181081120e-01,2.576007061206269100e-01,2.601710542722747155e-01,2.624958080253471659e-01,2.658291428053803362e-01,1.597756141432357113e-01,0.000000000000000000e+00,0.000000000000000000e+00,0.000000000000000000e+00,0.000000000000000000e+00,0.000000000000000000e+00,0.000000000000000000e+00,0.000000000000000000e+00,0.000000000000000000e+00,0.000000000000000000e+00,0.000000000000000000e+00,0.000000000000000000e+00,0.000000000000000000e+00,0.000000000000000000e+00,0.000000000000000000e+00,0.000000000000000000e+00,0.000000000000000000e+00,0.000000000000000000e+00,0.000000000000000000e+00,0.000000000000000000e+00,0.000000000000000000e+00,0.000000000000000000e+00,0.000000000000000000e+00,0.000000000000000000e+00,0.000000000000000000e+00,0.000000000000000000e+00,0.000000000000000000e+00,0.000000000000000000e+00,0.000000000000000000e+00,0.000000000000000000e+00,0.000000000000000000e+00,0.000000000000000000e+00,0.000000000000000000e+00,0.000000000000000000e+00,0.000000000000000000e+00,0.000000000000000000e+00,0.000000000000000000e+00,0.000000000000000000e+00,0.000000000000000000e+00,0.000000000000000000e+00,0.000000000000000000e+00,0.000000000000000000e+00,0.000000000000000000e+00,0.000000000000000000e+00,0.000000000000000000e+00,nan
nan,0.000000000000000000e+00,0.000000000000000000e+00,0.000000000000000000e+00,0.000000000000000000e+00,0.000000000000000000e+00,0.000000000000000000e+00,0.000000000000000000e+00,0.000000000000000000e+00,0.000000000000000000e+00,0.000000000000000000e+00,0.000000000000000000e+00,0.000000000000000000e+00,0.000000000000000000e+00,0.000000000000000000e+00,0.000000000000000000e+00,0.000000000000000000e+00,0.000000000000000000e+00,0.000000000000000000e+00,0.000000000000000000e+00,0.000000000000000000e+00,0.000000000000000000e+00,0.000000000000000000e+00,0.000000000000000000e+00,0.000000000000000000e+00,0.000000000000000000e+00,0.000000000000000000e+00,0.000000000000000000e+00,0.000000000000000000e+00,0.000000000000000000e+00,0.000000000000000000e+00,0.000000000000000000e+00,0.000000000000000000e+00,0.000000000000000000e+00,0.000000000000000000e+00,0.000000000000000000e+00,0.000000000000000000e+00,0.000000000000000000e+00,0.000000000000000000e+00,0.000000000000000000e+00,0.000000000000000000e+00,0.000000000000000000e+00,0.000000000000000000e+00,0.000000000000000000e+00,0.000000000000000000e+00,8.737386327104831873e-02,2.078058869975030754e-01,2.457422772204167494e-01,2.478166143549636047e-01,2.520873948256943664e-01,2.552320148728585147e-01,2.584515945651979507e-01,2.650410664228396995e-01,2.733458447042844686e-01,1.168563880839149360e-01,0.000000000000000000e+00,0.000000000000000000e+00,0.000000000000000000e+00,0.000000000000000000e+00,0.000000000000000000e+00,0.000000000000000000e+00,0.000000000000000000e+00,0.000000000000000000e+00,0.000000000000000000e+00,0.000000000000000000e+00,0.000000000000000000e+00,0.000000000000000000e+00,0.000000000000000000e+00,0.000000000000000000e+00,0.000000000000000000e+00,0.000000000000000000e+00,0.000000000000000000e+00,0.000000000000000000e+00,0.000000000000000000e+00,0.000000000000000000e+00,0.000000000000000000e+00,0.000000000000000000e+00,0.000000000000000000e+00,0.000000000000000000e+00,0.000000000000000000e+00,0.000000000000000000e+00,0.000000000000000000e+00,0.000000000000000000e+00,0.000000000000000000e+00,0.000000000000000000e+00,0.000000000000000000e+00,0.000000000000000000e+00,0.000000000000000000e+00,0.000000000000000000e+00,0.000000000000000000e+00,0.000000000000000000e+00,0.000000000000000000e+00,0.000000000000000000e+00,0.000000000000000000e+00,0.000000000000000000e+00,0.000000000000000000e+00,0.000000000000000000e+00,0.000000000000000000e+00,0.000000000000000000e+00,nan
nan,0.000000000000000000e+00,0.000000000000000000e+00,0.000000000000000000e+00,0.000000000000000000e+00,0.000000000000000000e+00,0.000000000000000000e+00,0.000000000000000000e+00,0.000000000000000000e+00,0.000000000000000000e+00,0.000000000000000000e+00,0.000000000000000000e+00,0.000000000000000000e+00,0.000000000000000000e+00,0.000000000000000000e+00,0.000000000000000000e+00,0.000000000000000000e+00,0.000000000000000000e+00,0.000000000000000000e+00,0.000000000000000000e+00,0.000000000000000000e+00,0.000000000000000000e+00,0.000000000000000000e+00,0.000000000000000000e+00,0.000000000000000000e+00,0.000000000000000000e+00,0.000000000000000000e+00,0.000000000000000000e+00,0.000000000000000000e+00,0.000000000000000000e+00,0.000000000000000000e+00,0.000000000000000000e+00,0.000000000000000000e+00,0.000000000000000000e+00,0.000000000000000000e+00,0.000000000000000000e+00,0.000000000000000000e+00,0.000000000000000000e+00,0.000000000000000000e+00,0.000000000000000000e+00,0.000000000000000000e+00,0.000000000000000000e+00,0.000000000000000000e+00,0.000000000000000000e+00,0.000000000000000000e+00,1.366691768508697113e-01,2.431489989896073178e-01,2.483383994695980146e-01,2.496515228917386142e-01,2.518143737804346971e-01,2.535116372117598438e-01,2.523768779683100427e-01,2.502889019351418054e-01,2.434041426491795057e-01,1.293389636418430799e-01,0.000000000000000000e+00,0.000000000000000000e+00,0.000000000000000000e+00,0.000000000000000000e+00,0.000000000000000000e+00,0.000000000000000000e+00,0.000000000000000000e+00,0.000000000000000000e+00,0.000000000000000000e+00,0.000000000000000000e+00,0.000000000000000000e+00,0.000000000000000000e+00,0.000000000000000000e+00,0.000000000000000000e+00,0.000000000000000000e+00,0.000000000000000000e+00,0.000000000000000000e+00,0.000000000000000000e+00,0.000000000000000000e+00,0.000000000000000000e+00,0.000000000000000000e+00,0.000000000000000000e+00,0.000000000000000000e+00,0.000000000000000000e+00,0.000000000000000000e+00,0.000000000000000000e+00,0.000000000000000000e+00,0.000000000000000000e+00,0.000000000000000000e+00,0.000000000000000000e+00,0.000000000000000000e+00,0.000000000000000000e+00,0.000000000000000000e+00,0.000000000000000000e+00,0.000000000000000000e+00,0.000000000000000000e+00,0.000000000000000000e+00,0.000000000000000000e+00,0.000000000000000000e+00,0.000000000000000000e+00,0.000000000000000000e+00,0.000000000000000000e+00,0.000000000000000000e+00,0.000000000000000000e+00,nan
nan,0.000000000000000000e+00,0.000000000000000000e+00,0.000000000000000000e+00,0.000000000000000000e+00,0.000000000000000000e+00,0.000000000000000000e+00,0.000000000000000000e+00,0.000000000000000000e+00,0.000000000000000000e+00,0.000000000000000000e+00,0.000000000000000000e+00,0.000000000000000000e+00,0.000000000000000000e+00,0.000000000000000000e+00,0.000000000000000000e+00,0.000000000000000000e+00,2.402885678233054184e-02,2.063781957458955818e-02,0.000000000000000000e+00,0.000000000000000000e+00,0.000000000000000000e+00,0.000000000000000000e+00,0.000000000000000000e+00,0.000000000000000000e+00,0.000000000000000000e+00,0.000000000000000000e+00,0.000000000000000000e+00,0.000000000000000000e+00,0.000000000000000000e+00,0.000000000000000000e+00,0.000000000000000000e+00,2.207913480535900891e-02,0.000000000000000000e+00,0.000000000000000000e+00,0.000000000000000000e+00,0.000000000000000000e+00,0.000000000000000000e+00,0.000000000000000000e+00,0.000000000000000000e+00,0.000000000000000000e+00,0.000000000000000000e+00,0.000000000000000000e+00,0.000000000000000000e+00,0.000000000000000000e+00,1.268648646239259326e-01,2.464625787276332192e-01,2.516269583280472122e-01,2.534307972230133155e-01,2.548204262004922782e-01,2.543861158112361021e-01,2.509201612293415762e-01,2.477830272054259986e-01,2.278791055887497974e-01,2.166646597711297251e-01,0.000000000000000000e+00,3.942396403349173600e-02,3.879494645906608752e-02,0.000000000000000000e+00,0.000000000000000000e+00,0.000000000000000000e+00,0.000000000000000000e+00,0.000000000000000000e+00,0.000000000000000000e+00,0.000000000000000000e+00,0.000000000000000000e+00,0.000000000000000000e+00,0.000000000000000000e+00,0.000000000000000000e+00,0.000000000000000000e+00,0.000000000000000000e+00,0.000000000000000000e+00,2.243758518828480042e-02,0.000000000000000000e+00,0.000000000000000000e+00,2.126164795432726462e-02,0.000000000000000000e+00,0.000000000000000000e+00,0.000000000000000000e+00,0.000000000000000000e+00,0.000000000000000000e+00,0.000000000000000000e+00,3.149851702164332273e-03,0.000000000000000000e+00,0.000000000000000000e+00,0.000000000000000000e+00,0.000000000000000000e+00,0.000000000000000000e+00,2.626431431572788175e-03,0.000000000000000000e+00,1.036384712137621358e-02,0.000000000000000000e+00,0.000000000000000000e+00,6.527982170019396881e-03,0.000000000000000000e+00,0.000000000000000000e+00,0.000000000000000000e+00,0.000000000000000000e+00,0.000000000000000000e+00,nan
nan,7.615060724285825644e-03,1.326877071812374367e-02,4.515876826026072460e-03,5.258547431493527241e-03,1.057835507293483461e-02,1.660268069142840919e-02,1.533142980349744104e-02,3.479293230167555817e-02,4.874736808200672011e-02,1.301929851819534981e-02,5.179207223730029896e-02,8.919817219736964758e-03,7.359779494643063635e-02,5.105421065084606025e-02,3.638611847827373513e-02,5.821214081340799623e-02,7.406254045076102188e-02,9.143324539519373517e-02,6.114006756951967381e-02,4.316783465533467062e-02,5.893703466052300360e-02,1.071099316560022996e-02,6.130001992150035939e-02,5.340175184197059471e-02,6.054102728992764165e-02,4.993618560567742587e-02,9.990050200547054282e-02,1.076126006577797223e-01,7.136232944237226594e-02,6.856852670932839233e-02,1.149087313322609966e-01,1.075033606797747288e-01,1.799590946432555461e-02,9.712378935239562860e-02,4.940751777265268985e-02,3.960294606926931249e-02,6.700312472984302700e-03,4.484906324295633712e-02,2.546433609241467375e-02,7.252565973589619741e-02,7.987583594819849808e-02,3.280913738015980158e-02,1.078873479685615588e-01,1.340350854937111535e-01,2.107067775625973693e-01,2.399780975295111585e-01,2.505460838222978159e-01,2.517991019092958860e-01,2.564640179588714153e-01,2.547463175886623410e-01,2.505899610337412042e-01,2.436977711599173091e-01,2.330689576174451161e-01,2.255894111734136065e-01,1.343443353438872889e-01,1.807432886319955689e-01,4.101725955618217706e-02,9.156689120418742833e-02,1.155174228840634976e-01,1.465867793478947412e-01,1.342058353104076951e-01,7.670870886251165977e-02,2.249200993984949715e-02,2.169013127885791037e-02,3.402647797346284447e-02,9.557964503463381445e-02,7.564144656719656856e-02,2.097832134862653505e-02,6.812025971935356528e-02,8.437990329105807263e-02,4.946016541381464959e-02,8.717602641872566893e-02,5.044875102491058749e-02,8.586985821989800982e-02,5.260400371245030349e-02,3.623744760127348835e-02,3.968588956888285252e-02,6.995901018963507356e-02,8.458477266638311093e-03,7.403130118567881335e-02,2.787571416657696338e-02,5.533386642449995840e-02,2.125267602842670356e-02,5.357324332469683842e-02,5.539729452808366678e-02,4.262532260482324031e-02,6.217989282019609210e-02,4.861345894060308676e-02,5.717376072751346322e-02,5.219919113318292891e-02,4.081052254365030718e-02,2.110044182987375408e-03,3.760750825237894890e-02,1.651433444950505675e-02,2.546037684590132105e-02,2.527031155184555553e-02,8.089388634172437961e-03,1.768190525442050109e-03,nan
nan,1.315429101682024336e-02,2.126810551547671235e-02,2.609783766092381094e-02,4.431799457824982941e-02,5.103102878641556372e-02,5.519292459484490682e-02,5.985730999846301803e-02,6.382089217160286099e-02,6.733162542235997250e-02,6.119090535150932542e-02,7.365682394898023788e-02,7.686486677481184360e-02,8.500205746925848516e-02,8.762746076291104413e-02,9.007404147178726950e-02,9.266764970937113599e-02,9.491887955282765632e-02,9.678391123337848345e-02,9.862683204069104537e-02,1.008492818319534495e-01,1.049930448132373184e-01,1.085895466642398527e-01,1.128711828168592890e-01,1.162878840437546746e-01,1.189646299762133486e-01,1.213298459959038511e-01,1.242692317791969925e-01,1.266257356120105981e-01,1.291475841207899988e-01,1.321160531925039683e-01,1.349929990191798823e-01,1.371841350469727994e-01,1.426696513342954331e-01,1.461939529197340548e-01,1.494681810523951770e-01,1.249386154574657903e-01,1.593153394227619091e-01,1.500756569474076818e-01,1.691115521910224739e-01,1.739429898705375510e-01,1.699966088231687489e-01,1.538958410810284672e-01,1.983344065278663526e-01,2.076972002351714086e-01,2.190278277948659036e-01,2.319189266386668113e-01,2.384848146050899120e-01,2.424141087944125528e-01,2.441464035738770688e-01,2.438358602448347234e-01,2.400949672647987865e-01,2.349502130038890468e-01,2.283103322428085558e-01,2.206605321476806936e-01,2.112773995869152988e-01,1.986080556558337817e-01,1.099065990959467165e-01,1.738469545462360266e-01,1.706617860745241189e-01,1.660489335532978061e-01,1.622028890711596227e-01,1.580387755409580486e-01,1.519765937843690629e-01,1.489771231154257414e-01,1.453950628787198385e-01,1.409445348153582911e-01,1.374149049751414442e-01,1.348027874227001044e-01,1.277091123821110785e-01,1.283794426842942149e-01,1.262712150772515862e-01,1.091937438058981080e-01,1.188296588076678262e-01,1.162874190727708756e-01,1.109122366663707893e-01,1.094158453428484418e-01,1.072094330839041265e-01,1.056300628406975778e-01,9.273972475628552981e-02,9.808597241830052660e-02,9.508568361399324931e-02,8.209604503942180553e-02,8.852332185676370369e-02,8.532770933796206270e-02,8.221224255476708431e-02,7.880313793548918144e-02,7.590686903350880865e-02,7.273068884299999093e-02,6.997707110963669042e-02,6.716395381983009116e-02,6.462299904755788860e-02,5.505814093929449482e-02,5.074909397284479290e-02,4.398033538858375086e-02,3.824949749045918057e-02,3.284990588758766872e-02,2.337971261510830845e-02,1.077559590045933970e-02,nan
nan,1.348929888313465941e-02,2.426697837787297751e-02,3.414575294986384180e-02,4.443298690967621700e-02,5.047124300166874050e-02,5.505115763166996967e-02,5.985500560767171435e-02,6.390847939637761543e-02,6.722660297947234687e-02,7.067154944736936395e-02,7.454167044747181392e-02,7.896256335800375115e-02,8.371854929831896996e-02,8.701517175008538496e-02,8.965564243284619705e-02,9.214917518111728767e-02,9.454654799894471329e-02,9.666426304853965867e-02,9.900139451500455934e-02,1.016554885946365366e-01,1.047953480574776997e-01,1.087322566518455214e-01,1.120564860883109248e-01,1.153399940442454558e-01,1.181099367264788202e-01,1.208614318531706366e-01,1.237664399379833913e-01,1.263694778389489182e-01,1.291928441159477248e-01,1.320097897410756060e-01,1.348269423808969303e-01,1.380068150731940668e-01,1.417433071069619244e-01,1.457533663913879451e-01,1.492984806652011831e-01,1.537053912862286209e-01,1.584520336463621781e-01,1.632442834706130663e-01,1.679563447078317451e-01,1.732413967130096710e-01,1.797314461142447695e-01,1.871618226357171511e-01,1.950858788167074975e-01,2.028055034982135241e-01,2.118480124574349532e-01,2.190049806683548039e-01,2.252262724984472053e-01,2.293459336171456975e-01,2.311384614798286385e-01,2.310492416673730065e-01,2.282881853454652166e-01,2.243365127654562974e-01,2.185921261310896369e-01,2.122544810387606007e-01,2.039965702676402315e-01,1.932756412667052115e-01,1.841418032599186072e-01,1.745948531074861532e-01,1.696530355464739015e-01,1.654030281657227763e-01,1.617346141331010845e-01,1.569787367283579094e-01,1.522507844606676430e-01,1.483557825034206301e-01,1.446824213197469011e-01,1.409573336470393290e-01,1.375140276583635413e-01,1.341854335309699831e-01,1.310803377622874188e-01,1.282930054927966523e-01,1.249690143515291701e-01,1.217162645071113436e-01,1.186559252922783220e-01,1.159183185249299530e-01,1.126743275958110024e-01,1.097791443841433234e-01,1.072345621306723118e-01,1.048247445650356824e-01,1.020984161024531683e-01,9.849905567484747160e-02,9.509192796372262224e-02,9.191189479895739423e-02,8.868542949645094597e-02,8.535688983798837837e-02,8.257307330155942704e-02,7.901945120138398337e-02,7.558412793075251768e-02,7.273400098651015833e-02,6.986210819931604199e-02,6.697607457707976941e-02,6.347690660886462499e-02,5.831027981699821172e-02,5.211066711779478028e-02,4.552106688818236685e-02,3.931147314357306966e-02,3.219323106304873561e-02,2.328321880221072282e-02,1.206777511308417157e-02,nan
nan,1.352155924717815538e-02,2.477329329491943441e-02,3.538122937075442731e-02,4.430590068512860191e-02,5.002404295044532434e-02,5.510920423147954578e-02,5.962299990702637359e-02,6.369834501513815805e-02,6.740691351699287792e-02,7.107303221309364816e-02,7.487688691219296366e-02,7.924611323264565965e-02,8.300120560056115093e-02,8.623434586026078319e-02,8.913400712791133551e-02,9.175220101162806507e-02,9.428825113029690175e-02,9.669588241273203988e-02,9.917552403525312088e-02,1.020115368840653625e-01,1.051337472134641488e-01,1.084767448056689204e-01,1.116203928671809370e-01,1.147627111135957056e-01,1.176049703088953152e-01,1.204159048648554137e-01,1.232389678369618519e-01,1.260436139410412715e-01,1.288400806650887298e-01,1.317034043759539863e-01,1.346030244019174038e-01,1.377615999916204925e-01,1.416635162818203897e-01,1.450473569630087722e-01,1.488473560642538662e-01,1.530036349815048213e-01,1.574080565960176425e-01,1.620579160676502428e-01,1.666391488293451628e-01,1.717123777167600118e-01,1.774432356708050273e-01,1.838584692042821156e-01,1.908072931956646956e-01,1.972769041550214708e-01,2.040889996272544082e-01,2.107350806929121356e-01,2.151270654877232291e-01,2.181879068785505249e-01,2.197071291594006603e-01,2.193545615418428796e-01,2.176013287938588503e-01,2.143632727175346919e-01,2.100234429551664506e-01,2.041444685479601173e-01,1.971553992797738242e-01,1.894956029730613112e-01,1.815377268288995427e-01,1.741518417749297054e-01,1.689943228895257610e-01,1.642133209223673451e-01,1.601102214729157314e-01,1.558218646576308986e-01,1.517146621510473692e-01,1.477900320106097232e-01,1.441913242648523719e-01,1.406063809686463328e-01,1.370730851343834877e-01,1.338366797553064702e-01,1.307757691818947632e-01,1.278841496278934620e-01,1.245979025944479179e-01,1.215786551658955966e-01,1.184900432067283738e-01,1.155084060992203482e-01,1.124756155235244609e-01,1.095815659227515615e-01,1.070094089265157533e-01,1.043468425969303198e-01,1.016126985957051948e-01,9.841894856643601530e-02,9.511891884021156374e-02,9.198990109089055789e-02,8.879872533166531523e-02,8.549952180924136336e-02,8.241460127026402349e-02,7.917544194761944043e-02,7.584786331929588288e-02,7.269493586218081504e-02,6.957166133395797925e-02,6.629850091652539357e-02,6.248730484703534510e-02,5.790736305210492096e-02,5.223786479358286106e-02,4.665479036767326837e-02,4.019119374939362360e-02,3.221697752332660508e-02,2.248519607857263000e-02,1.219650283412851074e-02,nan
nan,1.355416293758262766e-02,2.462988181684311328e-02,3.538340953942424594e-02,4.344409315000151428e-02,4.981666234786608777e-02,5.490815274050248052e-02,5.936044750952318427e-02,6.350487322357692421e-02,6.740128548834635469e-02,7.112688787634804943e-02,7.496316090196937509e-02,7.881389484986223160e-02,8.239802098952538068e-02,8.566149537546080550e-02,8.858776752213037842e-02,9.134625330760297313e-02,9.395998445284040046e-02,9.652382175974638656e-02,9.914871580325679279e-02,1.019696975319015764e-01,1.049751702297147676e-01,1.081150671516816902e-01,1.112068530199140926e-01,1.141613429443451844e-01,1.170535614094922044e-01,1.198850700130610347e-01,1.226998471657104878e-01,1.254937087650627725e-01,1.283424251293457663e-01,1.312372032753536533e-01,1.341880240597316809e-01,1.374210971632995881e-01,1.408353121952083398e-01,1.444105181193541809e-01,1.480624033105217563e-01,1.520057959345944010e-01,1.561208006656953362e-01,1.605192325406891718e-01,1.650721704964306091e-01,1.696418999686765960e-01,1.748658698056864136e-01,1.803993268334687095e-01,1.859796659691116127e-01,1.918204680672075946e-01,1.971645288115463912e-01,2.022137480004838062e-01,2.058195031290973864e-01,2.084766733216379397e-01,2.096649616860003507e-01,2.095879642730298642e-01,2.079469075868538575e-01,2.057046581296820831e-01,2.015507490829223092e-01,1.971923302824777346e-01,1.910767637462852664e-01,1.852448830224597554e-01,1.783562314855267339e-01,1.725925924208162043e-01,1.674613934124650760e-01,1.628106977024123547e-01,1.586663424093647246e-01,1.547352527769090824e-01,1.507431074188515796e-01,1.469177243319050863e-01,1.433602703776632459e-01,1.399011473162004027e-01,1.365007325469397848e-01,1.333394060039336804e-01,1.302460860384179742e-01,1.272263115487557439e-01,1.241528689906823552e-01,1.211840806410456467e-01,1.182040555320660602e-01,1.152267341905584414e-01,1.122513782414994443e-01,1.094260799862195321e-01,1.066594919544776726e-01,1.039393202468708588e-01,1.011003850929505232e-01,9.803014721017608291e-02,9.493530455704264626e-02,9.183505409102774020e-02,8.862068551198752642e-02,8.547833240325933279e-02,8.228822516394512787e-02,7.910543269525992238e-02,7.584625359307399506e-02,7.257459301341923075e-02,6.931705264418221157e-02,6.585983096274576620e-02,6.194447692400302519e-02,5.749476092432274921e-02,5.234620833063173551e-02,4.649503579256168695e-02,3.997817429786156701e-02,3.187319786056481974e-02,2.227369545226716430e-02,1.230775912669823148e-02,nan
nan,1.367677653036400952e-02,2.355613324321774796e-02,3.455675494453177427e-02,4.316966573739539764e-02,4.950803768610030631e-02,5.447206142274131635e-02,5.909117451689794437e-02,6.323286746003362047e-02,6.719800389111194039e-02,7.100705009860207306e-02,7.474599261966816122e-02,7.843093247378754573e-02,8.185669563430778006e-02,8.510523119935678449e-02,8.807174952742691243e-02,9.089021040934003315e-02,9.358370451290874692e-02,9.625321542025487564e-02,9.896369045186889646e-02,1.017884253775725445e-01,1.047271842367789030e-01,1.076594172652987069e-01,1.106519030670921611e-01,1.135749948919393126e-01,1.164154667189414016e-01,1.192625126726107737e-01,1.220654828616895560e-01,1.248596265977530290e-01,1.276731085486623174e-01,1.305380915203640524e-01,1.335992580044034206e-01,1.366893194227420949e-01,1.399692240290369427e-01,1.434317050798707971e-01,1.469416501314964041e-01,1.506965984143687487e-01,1.545438687485064244e-01,1.584765676556432745e-01,1.629349702827316837e-01,1.673673040366625564e-01,1.718285261514708173e-01,1.767208959168258264e-01,1.816731143262282078e-01,1.863946356428804740e-01,1.907925255313707436e-01,1.946515567704481531e-01,1.979822171154045907e-01,1.999228527878576522e-01,2.008260807508807921e-01,2.010902450533919306e-01,1.995744567229369437e-01,1.974016869139410268e-01,1.940398000299538017e-01,1.900902516576474244e-01,1.854803568846952744e-01,1.803254052574961852e-01,1.748772106196707921e-01,1.699740766641312240e-01,1.652547126359080187e-01,1.610252868412949123e-01,1.570846908803354147e-01,1.531648162518792766e-01,1.494755311652016805e-01,1.458352250484059032e-01,1.423651345827728898e-01,1.390004605523812997e-01,1.357209024792487839e-01,1.325888044472940952e-01,1.295235914194429738e-01,1.265102542313513434e-01,1.235558620634604754e-01,1.205781428976364922e-01,1.176510600489022451e-01,1.147219135551451885e-01,1.118486448843108994e-01,1.090423998258518434e-01,1.062656276462622257e-01,1.034746245245582313e-01,1.006242084720969654e-01,9.765073682907304820e-02,9.463027952333334658e-02,9.153732987954156519e-02,8.843297369574185107e-02,8.527860247224711143e-02,8.213497132638188092e-02,7.891464225579469804e-02,7.567438836477430320e-02,7.234548005633405221e-02,6.895825303050258370e-02,6.534684722504795207e-02,6.146668284925822789e-02,5.703328383479274594e-02,5.202208213345145549e-02,4.620010768461232931e-02,3.926653647692331106e-02,3.151931146216017943e-02,2.195776050013864902e-02,1.285840268705758412e-02,nan
nan,1.334189338806512394e-02,2.294892552212583411e-02,3.403983978072629146e-02,4.268617428866780528e-02,4.896112396584912513e-02,5.418137123451793880e-02,5.862342988821170331e-02,6.291979404249195551e-02,6.688795626274936235e-02,7.064211330165938441e-02,7.432569627310073312e-02,7.793546801755066311e-02,8.129567275240001667e-02,8.452036497584214381e-02,8.751531990038755038e-02,9.035084392350284377e-02,9.312201555897392513e-02,9.583235040694379481e-02,9.860462840059450174e-02,1.014131997314040023e-01,1.042651235037526658e-01,1.071308720410556747e-01,1.100662214599003319e-01,1.128673830787289001e-01,1.157307008073096555e-01,1.185348778346332205e-01,1.213104049555883690e-01,1.240633980386013219e-01,1.268820808218238394e-01,1.297202623009972577e-01,1.327072189906448041e-01,1.357543614333130977e-01,1.389760684812479108e-01,1.422067568261637938e-01,1.456381338580507445e-01,1.491570827934555199e-01,1.528550882055331184e-01,1.566034722174934057e-01,1.605123502634120958e-01,1.645847975313957934e-01,1.686313407998542568e-01,1.728635967472680890e-01,1.770203283799589578e-01,1.809153137248648568e-01,1.845768730118083900e-01,1.879332185567286484e-01,1.904594672238313913e-01,1.923787640879577598e-01,1.932093844895716450e-01,1.931140522365190904e-01,1.919299676209163252e-01,1.900387753075915287e-01,1.876125206723434080e-01,1.839917233758242010e-01,1.802898169047330856e-01,1.759856403374674416e-01,1.715655386710406571e-01,1.672513048501087507e-01,1.629162026137692676e-01,1.589230623051212654e-01,1.552406116001766034e-01,1.515645341149794989e-01,1.480013583920365972e-01,1.445028119450817994e-01,1.411790703782909717e-01,1.379159996949812783e-01,1.347908404493666223e-01,1.316820464417882419e-01,1.287057520969582258e-01,1.257376646008895316e-01,1.228360239288241867e-01,1.199359637467123374e-01,1.170152745556222312e-01,1.141802648312497670e-01,1.113306352076205707e-01,1.085311523458384608e-01,1.057616570684011825e-01,1.029526975481838968e-01,1.001014372242892692e-01,9.718475065031798032e-02,9.420806978874246562e-02,9.120355480195126152e-02,8.808267686913782979e-02,8.498804465472790948e-02,8.183591208332713363e-02,7.863553569142009425e-02,7.533748250625330045e-02,7.199838514927792144e-02,6.851105838336604692e-02,6.486540048880311271e-02,6.090743094210090969e-02,5.651319986279457197e-02,5.149308293935128678e-02,4.561798610117975827e-02,3.879164351884454437e-02,3.057602206236298414e-02,2.038750723207362336e-02,1.134916263385524551e-02,nan
nan,1.191933774234772182e-02,2.186356930273863561e-02,3.288881061310157394e-02,4.163926112927958390e-02,4.803461957722755110e-02,5.360468088847808454e-02,5.817819935893596417e-02,6.237467004144765792e-02,6.639029965378842602e-02,7.022466327106723083e-02,7.385271976346333145e-02,7.734779946402864370e-02,8.070864189959706114e-02,8.389041163714125449e-02,8.689923178779043744e-02,8.978678773784838640e-02,9.259189618134604227e-02,9.536136688469287748e-02,9.808044906778151661e-02,1.009002773432643718e-01,1.037191774156163426e-01,1.065599258971798580e-01,1.093465032087636013e-01,1.121521456049720256e-01,1.149422787815065489e-01,1.177060991203980056e-01,1.204506914296769732e-01,1.232157662219284244e-01,1.259837704539207848e-01,1.288214392367906247e-01,1.316938349283193754e-01,1.346491829020183273e-01,1.377241496326823689e-01,1.408664291583586747e-01,1.441135355893781167e-01,1.474576566490337914e-01,1.509265575873899867e-01,1.543999357742106282e-01,1.580915449315720422e-01,1.616578126136514748e-01,1.653663442860750510e-01,1.691365673390870794e-01,1.725776232346749595e-01,1.761002287266791866e-01,1.793078779612773677e-01,1.818561467845623558e-01,1.840854253493814652e-01,1.852084310813972012e-01,1.858507144639710285e-01,1.860542256656972371e-01,1.854005232352083365e-01,1.835664070034620510e-01,1.810865800712192220e-01,1.784497206367528510e-01,1.753592638487277422e-01,1.715086065297938556e-01,1.679305473646401925e-01,1.640692044657463822e-01,1.602222218522952879e-01,1.565787757400095570e-01,1.531367935838172656e-01,1.497234065853528806e-01,1.462832494214005852e-01,1.430416574956892006e-01,1.398123591773242358e-01,1.367046693453375372e-01,1.336545446401981863e-01,1.306899158679457051e-01,1.277133350819666391e-01,1.248499287797128349e-01,1.219832343543167663e-01,1.191393502126861098e-01,1.162999468725088442e-01,1.134650966714342152e-01,1.106885662342891596e-01,1.079057040237256238e-01,1.051374229120955739e-01,1.023620345600576576e-01,9.951284019758220578e-02,9.661531941693031478e-02,9.369983977462048585e-02,9.071899430987612201e-02,8.766079456401169867e-02,8.457683154089935817e-02,8.141913866115985110e-02,7.822529901130281793e-02,7.493349466304402573e-02,7.153188232605206531e-02,6.800309471485857515e-02,6.429112357510839704e-02,6.030442884725371877e-02,5.565270512814535220e-02,5.085857427456996760e-02,4.511969539465573303e-02,3.812000232548571482e-02,2.962658414719605143e-02,1.871457826870739222e-02,1.004394305764754781e-02,nan
nan,1.108977859968279106e-02,2.157315444427070072e-02,3.236471089098302834e-02,4.122732807342344152e-02,4.780942168797527175e-02,5.305389322790640683e-02,5.755539114110658216e-02,6.174991996910177139e-02,6.574659952056427503e-02,6.961858264726665524e-02,7.321384621175798524e-02,7.671439553559974978e-02,8.004088327998205854e-02,8.319008340289878178e-02,8.622638382365360732e-02,8.911794854262339305e-02,9.196226884452676775e-02,9.473602381492586544e-02,9.750074945116511682e-02,1.002680828259135265e-01,1.030419294919417417e-01,1.058240907943906739e-01,1.085895418866351242e-01,1.113391596807059986e-01,1.140749265385714306e-01,1.167941385399702547e-01,1.194922832021404202e-01,1.222058456672606014e-01,1.249542651904687607e-01,1.276825906194179738e-01,1.305209321934330258e-01,1.334109842304830318e-01,1.363592333261746115e-01,1.394023807734738885e-01,1.424675767868441578e-01,1.456337954254470768e-01,1.488201253637110033e-01,1.521257774709058042e-01,1.553706611661155590e-01,1.587936972518718404e-01,1.619834713785909819e-01,1.653127800570219630e-01,1.684042343076088966e-01,1.714195083475017201e-01,1.739866425397337546e-01,1.760641943535653786e-01,1.780557962950644890e-01,1.791532825462491541e-01,1.797455555603681421e-01,1.798623274835720043e-01,1.790518710286187753e-01,1.775695850329051528e-01,1.758185566657467502e-01,1.735005253999205577e-01,1.706778025437440116e-01,1.674710526786578058e-01,1.643040081727898949e-01,1.607613963715323613e-01,1.574943662277485945e-01,1.541792857436476982e-01,1.509599788087204186e-01,1.476996764756774438e-01,1.445529918411666837e-01,1.413935740203868807e-01,1.383647070915191013e-01,1.353815351594652994e-01,1.324088023441650219e-01,1.295107855145062881e-01,1.266760530215943481e-01,1.238297351182238715e-01,1.210220443867368184e-01,1.182376955394304763e-01,1.154485410956545693e-01,1.126854951603021987e-01,1.099084313452379641e-01,1.072037370468181816e-01,1.044443453359330809e-01,1.016543511938874378e-01,9.885983242997772868e-02,9.600447794977126637e-02,9.309839332367872422e-02,9.013755794703014190e-02,8.712950657952735212e-02,8.404106015086978965e-02,8.091181073082617803e-02,7.771528080609492461e-02,7.440129953430510423e-02,7.100153183668568568e-02,6.740480541224122546e-02,6.360533843529127263e-02,5.954077730020392034e-02,5.511820060896333723e-02,5.004303806190786574e-02,4.429216120295268594e-02,3.703228076631556037e-02,2.813786621062953214e-02,1.751364699779454567e-02,9.721588133339131160e-03,nan
nan,1.110778500199902444e-02,2.069824866793356158e-02,3.167494986346895691e-02,4.013846977737658278e-02,4.710223682523775879e-02,5.247855130939296786e-02,5.686502744141608279e-02,6.107454082825670982e-02,6.502495947244957275e-02,6.888174599130048037e-02,7.255503066835748693e-02,7.597583312112034248e-02,7.927854622309722654e-02,8.244002894401521175e-02,8.544926792852572395e-02,8.838764086106408457e-02,9.124152237942267929e-02,9.402530086609868498e-02,9.677998986778246771e-02,9.951496668168062498e-02,1.022826352995418464e-01,1.050011604254844910e-01,1.077194922519814912e-01,1.104192730346467005e-01,1.131052637186990562e-01,1.157763071975667912e-01,1.184513815606356157e-01,1.210935806439035062e-01,1.237957959962627530e-01,1.265099879356151313e-01,1.292437138497653792e-01,1.320282095597101468e-01,1.348816735036748593e-01,1.377352027478966900e-01,1.406479555038487317e-01,1.436681866147843378e-01,1.466360896336440234e-01,1.496041637450987727e-01,1.526637368151058660e-01,1.557210159782588255e-01,1.587101491379971363e-01,1.616698981214012565e-01,1.644909489267206149e-01,1.668581525892350315e-01,1.691403621078775843e-01,1.709713000576700004e-01,1.724874555410424171e-01,1.735277529249579231e-01,1.740137510637633222e-01,1.739395138915864336e-01,1.734743034375737514e-01,1.722055638861425819e-01,1.705766967015845681e-01,1.686512397212964198e-01,1.662668777277193088e-01,1.635554343135624533e-01,1.607057489719198595e-01,1.577073434032833232e-01,1.547318647581462647e-01,1.516882989882085142e-01,1.486488197570098868e-01,1.456031799139178851e-01,1.426340080876874750e-01,1.396381866366303848e-01,1.367623039944949048e-01,1.338791612381774465e-01,1.310649327534668118e-01,1.282477907150980923e-01,1.254672159806219378e-01,1.227195449933200927e-01,1.199718470911666501e-01,1.172173189374984270e-01,1.145116309776836871e-01,1.118086893441324753e-01,1.090981717875987023e-01,1.063823994051731336e-01,1.036308921713168518e-01,1.008877338389209677e-01,9.810519841110300343e-02,9.527000711769584296e-02,9.239658423873707560e-02,8.947360694502688727e-02,8.647261507029288530e-02,8.340638521510995718e-02,8.027643738009135332e-02,7.708045255313646094e-02,7.377751149334257907e-02,7.030942486489272225e-02,6.670978072674950410e-02,6.290559562339134714e-02,5.880406388618129865e-02,5.414130324120187965e-02,4.911281795022302832e-02,4.318078510188857327e-02,3.583609086279673783e-02,2.701986134625046151e-02,1.653522322016156773e-02,8.725665103081193391e-03,nan
nan,1.055967814218864050e-02,2.026368993863393586e-02,3.051098954459875029e-02,3.909652626321274277e-02,4.599286037195875199e-02,5.159841487892055656e-02,5.614669484357955737e-02,6.032011548031279702e-02,6.420107437514904758e-02,6.805128699434970230e-02,7.174803081756273015e-02,7.519811228558491434e-02,7.845526371576602709e-02,8.159985602447376862e-02,8.465005245826055791e-02,8.756736870272638362e-02,9.042303346791838448e-02,9.321496209532267874e-02,9.594405276037966390e-02,9.869455185406247888e-02,1.013886807858319222e-01,1.040989032915348722e-01,1.067758425151986990e-01,1.094144385771585321e-01,1.120657658071940871e-01,1.146931364653848984e-01,1.173086325874783259e-01,1.199283909485585331e-01,1.225389705440300958e-01,1.251749352411725413e-01,1.278444420776142509e-01,1.305564835188099404e-01,1.332511995467560162e-01,1.360063660815857833e-01,1.387641951685576469e-01,1.415544855840852601e-01,1.443707729710561050e-01,1.471750206410719908e-01,1.499630262443166218e-01,1.527673400765893474e-01,1.554226760539789143e-01,1.580007899023773144e-01,1.604336098835517088e-01,1.625741128701296279e-01,1.646545167806837129e-01,1.662272346917365584e-01,1.675267921948510041e-01,1.682859149666934562e-01,1.685774399145113511e-01,1.686825047470060790e-01,1.682134317026904857e-01,1.671170110789426955e-01,1.657900599464461888e-01,1.640847335997293321e-01,1.620292818484750375e-01,1.596544248723111847e-01,1.571871949881497310e-01,1.545232445669554866e-01,1.517494440199175232e-01,1.490308390911680159e-01,1.461718775424601380e-01,1.434315540898952468e-01,1.406150505468208578e-01,1.378486840193768048e-01,1.350515405985220907e-01,1.322994558214348193e-01,1.295735388575490477e-01,1.268718698856152460e-01,1.241746613953430556e-01,1.214910227548074706e-01,1.188114197701906072e-01,1.161345854985891546e-01,1.134863110780552353e-01,1.108119265958090877e-01,1.081423387782768641e-01,1.054351020412732515e-01,1.027549775425836143e-01,1.000327018556157604e-01,9.726742938806204331e-02,9.446545759760041627e-02,9.162231429431315355e-02,8.870620397713044336e-02,8.573328275512726027e-02,8.268781433764636757e-02,7.957589345885969501e-02,7.634802500991147434e-02,7.306182260789202687e-02,6.958516695790828432e-02,6.587872667694089079e-02,6.201767047121450882e-02,5.785369340337651045e-02,5.326233794412094102e-02,4.807659130738557024e-02,4.189401714757837181e-02,3.464256822063918606e-02,2.520654961257305648e-02,1.564220064781582029e-02,8.698405132565568965e-03,nan
nan,1.033788549840697346e-02,1.808554076438575672e-02,2.891412789192675942e-02,3.763319875608506226e-02,4.475518821051114454e-02,5.036851230009545266e-02,5.493601827584188718e-02,5.925002885396275787e-02,6.331778885996119932e-02,6.720244992318565036e-02,7.079412096374926300e-02,7.429131760099684512e-02,7.756202510005467954e-02,8.069613631017001631e-02,8.373476754037631475e-02,8.668718776228787060e-02,8.952254971671486095e-02,9.230900555472904001e-02,9.506286901847962878e-02,9.776126658071972175e-02,1.004428963267188502e-01,1.031101266667782124e-01,1.057513742833081083e-01,1.083420184612447906e-01,1.109479318549594778e-01,1.135227122303191227e-01,1.160918793406802707e-01,1.186596885457448236e-01,1.212094298390995195e-01,1.237552242939222447e-01,1.263391373273940743e-01,1.289396602038480888e-01,1.314855525169416062e-01,1.341776429721134312e-01,1.367834219304399079e-01,1.394342220501254559e-01,1.420453804181755486e-01,1.446819287980344038e-01,1.471982049875772969e-01,1.496852624635572337e-01,1.521739276215933467e-01,1.545022930063491007e-01,1.566176229962984445e-01,1.585464531428068258e-01,1.603232050258275587e-01,1.616263095650448955e-01,1.627756055451524686e-01,1.633952274746468813e-01,1.638745226482565542e-01,1.637998956617615631e-01,1.632435355179920888e-01,1.624643502825995622e-01,1.613483583900334750e-01,1.598169038340379322e-01,1.579472194771851801e-01,1.559688585116509596e-01,1.537067031926597216e-01,1.514133302401927117e-01,1.488857830223153378e-01,1.463689489700685242e-01,1.437475935005005645e-01,1.411679151684879785e-01,1.384947882717847967e-01,1.357849457715128993e-01,1.332376694986776855e-01,1.306221684926868465e-01,1.280007892720268492e-01,1.253904728692762094e-01,1.227287608895613058e-01,1.201553959050340181e-01,1.175402443302775157e-01,1.149424865129608092e-01,1.123414309637590230e-01,1.097269949777154308e-01,1.070964662315111171e-01,1.044391396439490749e-01,1.017770074175598644e-01,9.908238601374586008e-02,9.635636153242164992e-02,9.357310761657453013e-02,9.074190835880371897e-02,8.784833830635596641e-02,8.489419572445303097e-02,8.186611526686117524e-02,7.874967464040674714e-02,7.553883611082830296e-02,7.221281526006262386e-02,6.873069567217079956e-02,6.499263407143160420e-02,6.104402351386080394e-02,5.679719462515542272e-02,5.221556641697501500e-02,4.688511994153205659e-02,4.048880700284251954e-02,3.286913315419206366e-02,2.352232026342162760e-02,1.442063818845581644e-02,7.832578669787967907e-03,nan
nan,8.776483113936356731e-03,1.665849017169453508e-02,2.711899293970020108e-02,3.635714897802486828e-02,4.325016179353365076e-02,4.880900665905325841e-02,5.382501720729027106e-02,5.820774815092098764e-02,6.233507097492596571e-02,6.616751175983057176e-02,6.982837875593851662e-02,7.329551482794582906e-02,7.657597798097420805e-02,7.973921589713027502e-02,8.276791521610013525e-02,8.569222914901286625e-02,8.854744751208720732e-02,9.132468812253106971e-02,9.406700457478077426e-02,9.674555121042854866e-02,9.939728308785578115e-02,1.020209708510383950e-01,1.046082076281832224e-01,1.071714635863685039e-01,1.097326134091520800e-01,1.122552696368002423e-01,1.147662757517050880e-01,1.172871152540208711e-01,1.197680671055173784e-01,1.222576352087372115e-01,1.247200544312010578e-01,1.272506384801331270e-01,1.297384738603352683e-01,1.322345868012428927e-01,1.347531265379272591e-01,1.372427825507651356e-01,1.396586960339430139e-01,1.420948078463116215e-01,1.444877126413468549e-01,1.466819891789125918e-01,1.490122439640259866e-01,1.510157962056188352e-01,1.529243938640571510e-01,1.546971284233827626e-01,1.561171010273811610e-01,1.573870185533934041e-01,1.583298761503214025e-01,1.589734919670606483e-01,1.592962362065182269e-01,1.592731811091661065e-01,1.588196506534039210e-01,1.580530942556717666e-01,1.571090106274953269e-01,1.557401024877699824e-01,1.541522746582370540e-01,1.523584528546292338e-01,1.504002701104086570e-01,1.482311622343206459e-01,1.459847955862726421e-01,1.436660948419032358e-01,1.412161894094211834e-01,1.388005015448416368e-01,1.362852576583646336e-01,1.338593935110842237e-01,1.313616267186832887e-01,1.288434668977720410e-01,1.263456810547692322e-01,1.238096288759533425e-01,1.212741540507178972e-01,1.187440079847551094e-01,1.162022465013385075e-01,1.136791712932405385e-01,1.111095944352938902e-01,1.085426723706230806e-01,1.059553127619165674e-01,1.033525181305286755e-01,1.007081222805837062e-01,9.805531270870730676e-02,9.533693543755185351e-02,9.259042443769975594e-02,8.977658568219493151e-02,8.692361098109675777e-02,8.396730041278771539e-02,8.093488232742877819e-02,7.783445905739803938e-02,7.463799641463578216e-02,7.128755831239012852e-02,6.770536863191431443e-02,6.400292053481621002e-02,6.000490668488853152e-02,5.563526375855921968e-02,5.081745679099659851e-02,4.532601331329910027e-02,3.876240895732911695e-02,3.067047231735971213e-02,2.124387879476603846e-02,1.230294175073310715e-02,6.922546355521943390e-03,nan
nan,8.459265405882170422e-03,1.574570041044371510e-02,2.508457157843068872e-02,3.419044990822664443e-02,4.143826206605678852e-02,4.727170439062679946e-02,5.243267422420037210e-02,5.699075678868360806e-02,6.115514791622450597e-02,6.508593099266693494e-02,6.871657040485626422e-02,7.220823892125002863e-02,7.550877209205686391e-02,7.867624220482136166e-02,8.172180700037957879e-02,8.462004598022102031e-02,8.748775122741883625e-02,9.025730304673987292e-02,9.295658322552335928e-02,9.563443262204009143e-02,9.825738993141698574e-02,1.008497030869682370e-01,1.033993762927076510e-01,1.059311244212402664e-01,1.084303077876300481e-01,1.109221711612611294e-01,1.133767100837857755e-01,1.158371706050135563e-01,1.182749364242559192e-01,1.206794919381106168e-01,1.230956357676700474e-01,1.254508629998609404e-01,1.278920522990310005e-01,1.302597397308459248e-01,1.326393556750073977e-01,1.349694053534122307e-01,1.372246326987087151e-01,1.395550640003824783e-01,1.417015327056403984e-01,1.438057524019627498e-01,1.457935800789953995e-01,1.476764416110838973e-01,1.494603480202899570e-01,1.509853606046365482e-01,1.523095724219555025e-01,1.533367252338285747e-01,1.541632638233644825e-01,1.547140893520383975e-01,1.549813409862767777e-01,1.549702289219612450e-01,1.546861984327596584e-01,1.539756464027139393e-01,1.530559434686279419e-01,1.519276190217782874e-01,1.504643864123569874e-01,1.488677246919655750e-01,1.470752350441629219e-01,1.451559828705860644e-01,1.430654795512645017e-01,1.409784544290139108e-01,1.387346301211838384e-01,1.364598002960687451e-01,1.341399337731005170e-01,1.317682714507464325e-01,1.293785927793030532e-01,1.269960231251276994e-01,1.245696200871481141e-01,1.221597621320287541e-01,1.196950204404623186e-01,1.172634041649668613e-01,1.147956606326379497e-01,1.123027026991406663e-01,1.098065300886624795e-01,1.072951403837705125e-01,1.047471092415518529e-01,1.021727224600143952e-01,9.958955981177361472e-02,9.692251065116429254e-02,9.425219035289252034e-02,9.152701549721252439e-02,8.872956611032764562e-02,8.587532092995217581e-02,8.295234084309115186e-02,7.993238951371725576e-02,7.682308042983583551e-02,7.357528576153124500e-02,7.021224016114574473e-02,6.658675652980368398e-02,6.280754128389359758e-02,5.876777671319716179e-02,5.434571730793279210e-02,4.924772712409601627e-02,4.369200081486910442e-02,3.666734718695395523e-02,2.846831498852352149e-02,1.920399575206905435e-02,1.119594118421779298e-02,6.464479825955125013e-03,nan
nan,7.799286196038565482e-03,1.362543946537023327e-02,2.262095645024668478e-02,3.204858841126669716e-02,3.954133930811275927e-02,4.559112993430264327e-02,5.091169610455420491e-02,5.556034506384036065e-02,5.989067911878608041e-02,6.377216086090953251e-02,6.753754382917132038e-02,7.103265228938229758e-02,7.434015102498661709e-02,7.750578420779120903e-02,8.056487559312641711e-02,8.348026276789964617e-02,8.632087075522898445e-02,8.907771399787925426e-02,9.180105438583802124e-02,9.445187517850284209e-02,9.705049974980901883e-02,9.960378643294659495e-02,1.021384674275503252e-01,1.046274098193791247e-01,1.070932821949382024e-01,1.095069760379008411e-01,1.119259815612279052e-01,1.143094486870931126e-01,1.166781898416735241e-01,1.189993642114055283e-01,1.213525446132138752e-01,1.236454231433535000e-01,1.259273349444677281e-01,1.281961403723797244e-01,1.304500242707380131e-01,1.326573597919768754e-01,1.348105715556247308e-01,1.369286091713785292e-01,1.389639666245046090e-01,1.409221260511873408e-01,1.427552719847914042e-01,1.444651169337544949e-01,1.460286761856172955e-01,1.474804107001098652e-01,1.486128136531343347e-01,1.495210189641283938e-01,1.503094998608040245e-01,1.508081126442465669e-01,1.509930103423465231e-01,1.509930636441713381e-01,1.506777304717544785e-01,1.500218193174708559e-01,1.493014369980247835e-01,1.482241808014513884e-01,1.468747528033586547e-01,1.454880626595666526e-01,1.437986117060540692e-01,1.421273130965966247e-01,1.402250471361078665e-01,1.382485385040730930e-01,1.361697616021609880e-01,1.340798944309544716e-01,1.318887407128071509e-01,1.296328943602072514e-01,1.274084671615189623e-01,1.250948268940293984e-01,1.227720428594988311e-01,1.204022828829890979e-01,1.180700770795777010e-01,1.156874299398707312e-01,1.132832508029811003e-01,1.108693032419982155e-01,1.084087418017589399e-01,1.059599323560161260e-01,1.034662023989630641e-01,1.009356128668572605e-01,9.835631512410958344e-02,9.575998649855904654e-02,9.307172271937796948e-02,9.038175689974752014e-02,8.757983204491313900e-02,8.474927152838404587e-02,8.180220315096106698e-02,7.882530051397428073e-02,7.574372885740222883e-02,7.250116023406633081e-02,6.906511130656875497e-02,6.546520881921634449e-02,6.162347885212145909e-02,5.748037280372204211e-02,5.295116227501504153e-02,4.786936633631333482e-02,4.212096737676937486e-02,3.465823116030716106e-02,2.568687966233216061e-02,1.602572136960865243e-02,9.887917799458413939e-03,6.214957065950848202e-03,nan
nan,6.919800418889813717e-03,1.211526650098718877e-02,2.001008137731989656e-02,2.926388463273697782e-02,3.728115512210147808e-02,4.366982845073438813e-02,4.925224750425966080e-02,5.403317388337337823e-02,5.840547900387638158e-02,6.238202544948068945e-02,6.621037133190497970e-02,6.975466845939268246e-02,7.305935204523589244e-02,7.626197782675286918e-02,7.929742468771239228e-02,8.224006093215138757e-02,8.508036508543936893e-02,8.785241375350877346e-02,9.055326576334542243e-02,9.318068017303182682e-02,9.575662231171438998e-02,9.830047796586902087e-02,1.007646242954363114e-01,1.032191227383311427e-01,1.056633957274209223e-01,1.080408123766615491e-01,1.103940072711237508e-01,1.127151509947786623e-01,1.150148791439382506e-01,1.172954800627926952e-01,1.195505934267054593e-01,1.217729951837032698e-01,1.239679394641158144e-01,1.261331672548581251e-01,1.282661537360411386e-01,1.303605545653692965e-01,1.323668331186917679e-01,1.343436108846077781e-01,1.362522195592338059e-01,1.380391318862555505e-01,1.397103939113641946e-01,1.413220391378672558e-01,1.427145424954451292e-01,1.440087150088863455e-01,1.450858825109905548e-01,1.459614037716026047e-01,1.465921374793562326e-01,1.469978800995536683e-01,1.472579032427767942e-01,1.471660369920896327e-01,1.469128742909965035e-01,1.463872404762014690e-01,1.456504142596269646e-01,1.446947488106972990e-01,1.435984692625663084e-01,1.422059828601545117e-01,1.407509047537454372e-01,1.392127697356138616e-01,1.374127965581604660e-01,1.355942428750959161e-01,1.336276834548856818e-01,1.316567373631915561e-01,1.295873372857866968e-01,1.275023295290592384e-01,1.253485618072793240e-01,1.231533623536427702e-01,1.209170952406039834e-01,1.186512844753888213e-01,1.163736949118378827e-01,1.140594243840472727e-01,1.117172061960499813e-01,1.093714712458736527e-01,1.069777103130916396e-01,1.045485377593692311e-01,1.020913661811902740e-01,9.959803924864479852e-02,9.705566154136954782e-02,9.447295112118823945e-02,9.182137328852099656e-02,8.914334809730807552e-02,8.636612173818579430e-02,8.354404084930787400e-02,8.063183893991490714e-02,7.763201560447674510e-02,7.452031064069741806e-02,7.124052278597926835e-02,6.780792863627128908e-02,6.416931222875311980e-02,6.024575852969640127e-02,5.607762369423946458e-02,5.127998477256558163e-02,4.608732003143482803e-02,3.993651195087496997e-02,3.224525678474665646e-02,2.257079069497619495e-02,1.381296719563171460e-02,8.268768049530417219e-03,5.456765767229386499e-03,nan
nan,5.917383279247493202e-03,1.013644116864009098e-02,1.693434806049240807e-02,2.594164070322446669e-02,3.484846622391894744e-02,4.182023497931924849e-02,4.754109036654367154e-02,5.232915163025061989e-02,5.686079562049457803e-02,6.094597494741890720e-02,6.474851883134151442e-02,6.833143192129886856e-02,7.172556423554421468e-02,7.492872588755972174e-02,7.798632624869369923e-02,8.092614130500352942e-02,8.375657212933278195e-02,8.652816734193403969e-02,8.922011232333773578e-02,9.182201185964526668e-02,9.438414179995396891e-02,9.687909787946348550e-02,9.933840431481186228e-02,1.017691302620856858e-01,1.041463224063841203e-01,1.064806560239859173e-01,1.087783571235107216e-01,1.110616040023082174e-01,1.132998672272336471e-01,1.155200420786079846e-01,1.176977101654608504e-01,1.198271387888214801e-01,1.219152366327897613e-01,1.240090819736169026e-01,1.259920319878874706e-01,1.279956690053836166e-01,1.299146862281856663e-01,1.317674112052574509e-01,1.335423380465446119e-01,1.352371335781406558e-01,1.367736359001948676e-01,1.381969993318388212e-01,1.395060796251784141e-01,1.406920309768127375e-01,1.416277018381431052e-01,1.424352162126321930e-01,1.430834025766860584e-01,1.434376977312628032e-01,1.436081739289761794e-01,1.435589662590500415e-01,1.433579887805603303e-01,1.428578714990175469e-01,1.422175042283079227e-01,1.413567566827283184e-01,1.402732768417457310e-01,1.390442607346963066e-01,1.377217472488323491e-01,1.362419289673362510e-01,1.346325346690682156e-01,1.328865585486273260e-01,1.311061258430793186e-01,1.292330969603538993e-01,1.272875806715141056e-01,1.253004920760834306e-01,1.232128941765611996e-01,1.211280158397440715e-01,1.189561518608379387e-01,1.168113381272355006e-01,1.145981853514645571e-01,1.123570764797840044e-01,1.100794501376051865e-01,1.077748831006975494e-01,1.054440651621388891e-01,1.030678122101758576e-01,1.006387523784024740e-01,9.819130947976917323e-02,9.566523404755071514e-02,9.309601674470927013e-02,9.050686023636150823e-02,8.782454603817509142e-02,8.508775871563517557e-02,8.225239834422340413e-02,7.933114816511703526e-02,7.632836838442669247e-02,7.325042824197962321e-02,6.994727232031210107e-02,6.644275202930982616e-02,6.275707323830445605e-02,5.881313588543857912e-02,5.442266897165209949e-02,4.965070150710120672e-02,4.402156965931167121e-02,3.761270477803292656e-02,2.925086100072358045e-02,1.961378463394186644e-02,1.232884573119471389e-02,7.419259571580422846e-03,4.582479455072433275e-03,nan
nan,4.658150711178362519e-03,8.058941236671546965e-03,1.395827190846044008e-02,2.207154713753865447e-02,3.216375122899210737e-02,3.945388037745591048e-02,4.538617257164699603e-02,5.053357726317767029e-02,5.510585101167024547e-02,5.929213178115425031e-02,6.320614246493440336e-02,6.686108675124491363e-02,7.022648365248132518e-02,7.348578255247316393e-02,7.655386856435193732e-02,7.951269379279185534e-02,8.233652245517737722e-02,8.510611223023926974e-02,8.780819946083034955e-02,9.040386432218938673e-02,9.292788842383065129e-02,9.539865461380458989e-02,9.782715246743278747e-02,1.002011536317046342e-01,1.025586636147407527e-01,1.048557538062616090e-01,1.071058513670704038e-01,1.093347321871928762e-01,1.115039195831646623e-01,1.136600273259750771e-01,1.157699136813952479e-01,1.178310636362855657e-01,1.198558607493273309e-01,1.218447592307937977e-01,1.237535192891140862e-01,1.256271279743376712e-01,1.274376717439298923e-01,1.291945871526289369e-01,1.308428698600470341e-01,1.323992520452332011e-01,1.338960703599347268e-01,1.351797713455248351e-01,1.364004056311865498e-01,1.374172628481059588e-01,1.383047069960746667e-01,1.390696690428258053e-01,1.396250374037756870e-01,1.399706926034116339e-01,1.401489963625028590e-01,1.401070061193845362e-01,1.398928159160158502e-01,1.394580285256911689e-01,1.388592353071656793e-01,1.380656794356097394e-01,1.371297950613844518e-01,1.359948117502544906e-01,1.347482974833323910e-01,1.333900207324059117e-01,1.318663285844931254e-01,1.302684278441283983e-01,1.285549694407540910e-01,1.268132286789835639e-01,1.249648370612027881e-01,1.230517609894109382e-01,1.210915052869548786e-01,1.190319705700934871e-01,1.170233635418885254e-01,1.149283828557446652e-01,1.127680865655538850e-01,1.106030765175473468e-01,1.083731855892241941e-01,1.061296717079811547e-01,1.038230978498662499e-01,1.014848552636027079e-01,9.913008189713294616e-02,9.669610685068885658e-02,9.421824493951681811e-02,9.167982904130418664e-02,8.908409629701688481e-02,8.642939829948625974e-02,8.367242514102760098e-02,8.084178715826843831e-02,7.794140457818141132e-02,7.499100047293484617e-02,7.181668523353534894e-02,6.849185916962935439e-02,6.496852233787067665e-02,6.120103470334394002e-02,5.722467679910087091e-02,5.278143795846587660e-02,4.766566016853865384e-02,4.185264726116273704e-02,3.474193724391035076e-02,2.616258969921489083e-02,1.726833553456030845e-02,1.033515667846857632e-02,7.025741822700490476e-03,4.278207128132992948e-03,nan
nan,3.854124225719909782e-03,6.602894527301171254e-03,1.064557171046684458e-02,1.886204124448413039e-02,2.836773789388491798e-02,3.631674738857000595e-02,4.307689004582702930e-02,4.845005524396803209e-02,5.315748653265611051e-02,5.760376256160822106e-02,6.155221214965775345e-02,6.517873802646194370e-02,6.867526943820037588e-02,7.192937837223706277e-02,7.504820784931467981e-02,7.801317660113540886e-02,8.085021253362674465e-02,8.361562304645868415e-02,8.629540742639277284e-02,8.889075257468009861e-02,9.140817592247213463e-02,9.385918290870161329e-02,9.625779219123047070e-02,9.861611314883875212e-02,1.009188167185907647e-01,1.031741894242912544e-01,1.053900858733991391e-01,1.075584387080649185e-01,1.096890716361839380e-01,1.117701989279110963e-01,1.138022914489012077e-01,1.157901088175373738e-01,1.177575921330140524e-01,1.196392121311162238e-01,1.214788011290750536e-01,1.232759055245870733e-01,1.250050812704452952e-01,1.266319254345463219e-01,1.281801922726641396e-01,1.296433202952480268e-01,1.310114773390890497e-01,1.322312038650364785e-01,1.333354081700432459e-01,1.343089354867236518e-01,1.351544803228808267e-01,1.358139744523381431e-01,1.362782089656440487e-01,1.366555357502726720e-01,1.367666577244472381e-01,1.367513786902533612e-01,1.365352620223979629e-01,1.361381550181719191e-01,1.355937933691631625e-01,1.348893896100285816e-01,1.340008087408591508e-01,1.329818822317064830e-01,1.318322263265334360e-01,1.305314806568870500e-01,1.291565062533965025e-01,1.276233604721282444e-01,1.260615774978924852e-01,1.243773404825739559e-01,1.226280308046043543e-01,1.208024019548916972e-01,1.189250367662496727e-01,1.169902707223316324e-01,1.150212645961392749e-01,1.129672394242187405e-01,1.109000488551220714e-01,1.087740609854413038e-01,1.066182148889160131e-01,1.044180262196930942e-01,1.021550634804484492e-01,9.988473590208164776e-02,9.753512773851888418e-02,9.513197625439782923e-02,9.268136945238340807e-02,9.016806494959313245e-02,8.760340190291887597e-02,8.495738580007747287e-02,8.219659102519849547e-02,7.937992607367200248e-02,7.646366334547675947e-02,7.343478564831058819e-02,7.027107917485327093e-02,6.691735352902083989e-02,6.333699791600608253e-02,5.955903303153378681e-02,5.542337654555493792e-02,5.081914505644750946e-02,4.556995727956504594e-02,3.937610714733728173e-02,3.179284660974896620e-02,2.228969436689542255e-02,1.424654227299035694e-02,9.337428531558385897e-03,6.511541004205724341e-03,3.997521802325108668e-03,nan
nan,3.197444967739193275e-03,5.323586227015801066e-03,9.363220865431409051e-03,1.506905062674235470e-02,2.407362012748257701e-02,3.338257551999759820e-02,4.010490975596688046e-02,4.613779655675329799e-02,5.116850990700613777e-02,5.564881007436102422e-02,5.973122747195550725e-02,6.342984022281140943e-02,6.695912402441303590e-02,7.023619734588985863e-02,7.339717813106309829e-02,7.639250924336316029e-02,7.925352512816527528e-02,8.203867218429578001e-02,8.471431955794149482e-02,8.729236426878181354e-02,8.980340041738579804e-02,9.222850943604939122e-02,9.461485520003393157e-02,9.692296698416462408e-02,9.920335033588820184e-02,1.014309588008054375e-01,1.035969711968481727e-01,1.057247753205448615e-01,1.078009305418523300e-01,1.098130794583479647e-01,1.117997479813934436e-01,1.137237034692178128e-01,1.156055964089216792e-01,1.174348699651689976e-01,1.192116926257029280e-01,1.208833013849825722e-01,1.225230951741922425e-01,1.240639651293211909e-01,1.255414026229280111e-01,1.269215038617245717e-01,1.281691118563414999e-01,1.293465079062102452e-01,1.303758526944447937e-01,1.312936914051866522e-01,1.320550307057690720e-01,1.326922035143078271e-01,1.331123744132341746e-01,1.334352035937863556e-01,1.335367816703448007e-01,1.335348459875175808e-01,1.333347812806809918e-01,1.329954216780623866e-01,1.324788855639403851e-01,1.318016533392189771e-01,1.309668995592683238e-01,1.300510859255202545e-01,1.289518953951507285e-01,1.277332412023658992e-01,1.264336727078766709e-01,1.250141284418913590e-01,1.235326860330391990e-01,1.219526707208949956e-01,1.202648224231435137e-01,1.185186579515756372e-01,1.167236460384344782e-01,1.148514869368932878e-01,1.129615887942123087e-01,1.109881616198619414e-01,1.089725778566665582e-01,1.069041452945378862e-01,1.048045388759563934e-01,1.026497759276825406e-01,1.004424651069562580e-01,9.820369070056692018e-02,9.586491453114173722e-02,9.350808659315289206e-02,9.107008204988885358e-02,8.858709927395952421e-02,8.604095074731192561e-02,8.337015131787543776e-02,8.066599948477068405e-02,7.781592383144002312e-02,7.488983781301776499e-02,7.183058519101803707e-02,6.861560574588054795e-02,6.525844377015602160e-02,6.161810034818895887e-02,5.760631905487170051e-02,5.338841327649609947e-02,4.852605236994732285e-02,4.297705279316935134e-02,3.622028169460411728e-02,2.781930388340578958e-02,1.995857537192749498e-02,1.264531133976952784e-02,8.133139530853695370e-03,5.265112447602617041e-03,3.124908162388433022e-03,nan
nan,2.718656723917843056e-03,4.797990502203884622e-03,7.975679962831628070e-03,1.288095353318836553e-02,2.054483744476056847e-02,2.924840717999625458e-02,3.711512291451933565e-02,4.348200742277384678e-02,4.875552702435131947e-02,5.350406350903328528e-02,5.770821441089860060e-02,6.152544255254790984e-02,6.516339368431703361e-02,6.850636012040006717e-02,7.167504159360392479e-02,7.469893526482204726e-02,7.758916724951188393e-02,8.036022321931125811e-02,8.304368079276155945e-02,8.563068765182330067e-02,8.810816149448744139e-02,9.054824384079482313e-02,9.289236327654110115e-02,9.519087351495970906e-02,9.742582673739444421e-02,9.962165811823225914e-02,1.017322433274402554e-01,1.038251501448880509e-01,1.058397324008959473e-01,1.078235527412128719e-01,1.097442782248831128e-01,1.116229984457458579e-01,1.134394158213167386e-01,1.151797840599239203e-01,1.168792032578178791e-01,1.184983465112123546e-01,1.200743938681019807e-01,1.215187443736942680e-01,1.229326084632935828e-01,1.242085553827396716e-01,1.254071662099769391e-01,1.264868047162586995e-01,1.274731433499604882e-01,1.283109685325543314e-01,1.290405107604881974e-01,1.295913040983511788e-01,1.300252746725945319e-01,1.302794492734717646e-01,1.304332652024390860e-01,1.303915501531927312e-01,1.301887099342707299e-01,1.299076004203418289e-01,1.294372994628310292e-01,1.287675889041090538e-01,1.280039464067870836e-01,1.271249273886758679e-01,1.261177078490983705e-01,1.250016128015443151e-01,1.237677271627256742e-01,1.224440515111726024e-01,1.210147868144083177e-01,1.194917661959795652e-01,1.178978446136602354e-01,1.162299191409974231e-01,1.145031779595653693e-01,1.126987663700538128e-01,1.108515514273875069e-01,1.089566795986003644e-01,1.070000699818436929e-01,1.049968994137208123e-01,1.029267667769843131e-01,1.008129311121420124e-01,9.865846960096597007e-02,9.642410455765398902e-02,9.413499504526037787e-02,9.180457485930082484e-02,8.938949599995255069e-02,8.689953871969637034e-02,8.436404772107702899e-02,8.170570317359837631e-02,7.901196547150356186e-02,7.617223770005859818e-02,7.322119638316404444e-02,7.014193497308385261e-02,6.687214290969077657e-02,6.342260687144118947e-02,5.969338771756856760e-02,5.569710504197832035e-02,5.124810196169723997e-02,4.620656899618207775e-02,4.019694377673209418e-02,3.286550360588583880e-02,2.492312083727327154e-02,1.758791374097967361e-02,1.176048098027546868e-02,7.123217922573475344e-03,4.234487630487986792e-03,2.111075711187432747e-03,nan
nan,1.999049757683622145e-03,4.001107636883296376e-03,6.652085423057189396e-03,1.133855342642354526e-02,1.652198229310814295e-02,2.511810393134314423e-02,3.346366889176372039e-02,4.030902037383770481e-02,4.616175943747716226e-02,5.111407420648529654e-02,5.545732163313663032e-02,5.952462597703039177e-02,6.321387374682402305e-02,6.661260515990066744e-02,6.984841779396346040e-02,7.289223258288318741e-02,7.580173777995974360e-02,7.858039706707506400e-02,8.127402858257867790e-02,8.385779616683176896e-02,8.635364146278592945e-02,8.875470671943044843e-02,9.111072814366102945e-02,9.338749208704197335e-02,9.558713914911307064e-02,9.773885040873675489e-02,9.984144271921581437e-02,1.018637903769910036e-01,1.038620969723360182e-01,1.058033814303248887e-01,1.076615839000604619e-01,1.094778581896720254e-01,1.112258948816529786e-01,1.129179077983107071e-01,1.145584160203087787e-01,1.161091500658501113e-01,1.175568172749494877e-01,1.189937278156762979e-01,1.202748376541456082e-01,1.215341780658400206e-01,1.226591210307553803e-01,1.236848887612609360e-01,1.246158538966066487e-01,1.253677775718894105e-01,1.260538095421146476e-01,1.265859460966484440e-01,1.269887865918755132e-01,1.272397495278307089e-01,1.273415415791305794e-01,1.273240432694249247e-01,1.271656202963635518e-01,1.268780517746225800e-01,1.264298250216903674e-01,1.258206092215689853e-01,1.251056495162293503e-01,1.242985879752858402e-01,1.233188787387626550e-01,1.222777491206925582e-01,1.211123686233366997e-01,1.198360069647860515e-01,1.184547453326549593e-01,1.170429796366426606e-01,1.155145558366209857e-01,1.139124150927946083e-01,1.122701607825231235e-01,1.105340892456399826e-01,1.087541993151022873e-01,1.068804176505810666e-01,1.049674178502056909e-01,1.030134130343425686e-01,1.009886873476026903e-01,9.891359992652051791e-02,9.678039409173835872e-02,9.458543082595262386e-02,9.234378088165669241e-02,9.002726429252484730e-02,8.762219665571779892e-02,8.515330289017039589e-02,8.261871149867555664e-02,7.998295119349942139e-02,7.722861636371322613e-02,7.441990330654627006e-02,7.139651233074044423e-02,6.833208318762531985e-02,6.502220352889637178e-02,6.150965959265792399e-02,5.769199115834396790e-02,5.355378583327746744e-02,4.886443434234616356e-02,4.362266038436247995e-02,3.710862003522445718e-02,2.981691909341579322e-02,2.219581769049364453e-02,1.476694702083927030e-02,9.354238026085402030e-03,5.906731161517915496e-03,3.424811802824002851e-03,1.718106547771618489e-03,nan
nan,1.512444904623503001e-03,3.142822348556314864e-03,5.627843549093184544e-03,8.267303449724388090e-03,1.263806466990474199e-02,2.043999299374845563e-02,2.928166573600082465e-02,3.656179281482735410e-02,4.329221769622710464e-02,4.845747462015949358e-02,5.308069792438822876e-02,5.727416094019609216e-02,6.102718977062234623e-02,6.456855593478914856e-02,6.784403618398850144e-02,7.097225469064005754e-02,7.393586396450681220e-02,7.675675602931054942e-02,7.943069019442347556e-02,8.200776695467315580e-02,8.451789181737029422e-02,8.690359813516521093e-02,8.923331553400712379e-02,9.150211337016840585e-02,9.368335723304391238e-02,9.581351010581605487e-02,9.787865657856695267e-02,9.987930476003151203e-02,1.018173308432797908e-01,1.036985796575637109e-01,1.055085510363803353e-01,1.072949228161892421e-01,1.090073347418562266e-01,1.106360641555148572e-01,1.122110471048160807e-01,1.137328735327389762e-01,1.151349404784882541e-01,1.164622470196176041e-01,1.177077331750740474e-01,1.188903203342832476e-01,1.199523404813698790e-01,1.208997019368887732e-01,1.217634963451166286e-01,1.225225745537261018e-01,1.231521874317351439e-01,1.236322539706516260e-01,1.240203201174091691e-01,1.242512858952175836e-01,1.243531990731525649e-01,1.243376360772952133e-01,1.241576888899740827e-01,1.239113053841759404e-01,1.234765842054109664e-01,1.229298831805114012e-01,1.222491808352897114e-01,1.214677114216893006e-01,1.205706562424871398e-01,1.195659541656302061e-01,1.184737789603981239e-01,1.172425376437773448e-01,1.159398017249824442e-01,1.145778595164423236e-01,1.131152107875111196e-01,1.115729721494888860e-01,1.099773158241584003e-01,1.083130921880426645e-01,1.065871253704222810e-01,1.047787562232121716e-01,1.028911222188845093e-01,1.009790179935765864e-01,9.900365185214858588e-02,9.694803646756190718e-02,9.484777427382687365e-02,9.270647514793717292e-02,9.047243188016600157e-02,8.815243046170395669e-02,8.578450851998836724e-02,8.332148111116735589e-02,8.077421013408235539e-02,7.815734775143658164e-02,7.544598701104457406e-02,7.254942495713252726e-02,6.953397965842822437e-02,6.633457011997719033e-02,6.304308495246069288e-02,5.937745788576440087e-02,5.544514300539101631e-02,5.110762761119722053e-02,4.622593393987166344e-02,4.063404517025454021e-02,3.341788141879806218e-02,2.614011104288166409e-02,1.774007928708460843e-02,1.151795059832983782e-02,7.505750296094255286e-03,4.682550660949196149e-03,2.608785532054549040e-03,1.179585130188506598e-03,nan
nan,9.755351547496980040e-04,2.376393076722307408e-03,4.321827695174120833e-03,6.665846363687067018e-03,9.917853692963451290e-03,1.557190949032724592e-02,2.422422424205707830e-02,3.260826673278865301e-02,3.958200370129680984e-02,4.545409265056493675e-02,5.042183829702440168e-02,5.473418294099988146e-02,5.874722839118176609e-02,6.241302710747993754e-02,6.571029289037849663e-02,6.895352762803337587e-02,7.193985782045259070e-02,7.475705417580480461e-02,7.747721015095312969e-02,8.007869239798995342e-02,8.256756630471343006e-02,8.496630607932476043e-02,8.729360345323874948e-02,8.954755137014661082e-02,9.171595418067299277e-02,9.380933143118594386e-02,9.585773544252168543e-02,9.782362320099816100e-02,9.973125286121520272e-02,1.015601226228117909e-01,1.033442019173759358e-01,1.050738878444800323e-01,1.067359144651836289e-01,1.083272604924700733e-01,1.098345383545235726e-01,1.113230305613760740e-01,1.126429906742847792e-01,1.139037196009242137e-01,1.151082885516762772e-01,1.162450981754173385e-01,1.172470489128049909e-01,1.181478152329289016e-01,1.189731565928108803e-01,1.196930482749976321e-01,1.202819671173874505e-01,1.207428415123965870e-01,1.210956480586714845e-01,1.213134956752995736e-01,1.214401747754253330e-01,1.214254189372876297e-01,1.212535123509232426e-01,1.209825860310960871e-01,1.205682727020073730e-01,1.200841375838100078e-01,1.194447846530679175e-01,1.187082172685253734e-01,1.178387043963452091e-01,1.168835589768861816e-01,1.158391902584926941e-01,1.146693547268026747e-01,1.134205371701404730e-01,1.121073883742033234e-01,1.106981738417724404e-01,1.092396132696639710e-01,1.076698673636147519e-01,1.060491430218094555e-01,1.043779347501939958e-01,1.026122098453628034e-01,1.007801468816058726e-01,9.891523282954572949e-02,9.695409568235677233e-02,9.493270900771819121e-02,9.287122777962837639e-02,9.074731517773616807e-02,8.850312207624186356e-02,8.623285874364390591e-02,8.386090678087426697e-02,8.139097637308839728e-02,7.883766876176385996e-02,7.625857423450735362e-02,7.349556564039708140e-02,7.060457446781957802e-02,6.751294211385913679e-02,6.428363076702395262e-02,6.078544503540193183e-02,5.713005112102359506e-02,5.302854820313417789e-02,4.843115525970438651e-02,4.334823946635218972e-02,3.722162356754012136e-02,3.000334283577165556e-02,2.098287335686777402e-02,1.376441316872174629e-02,8.704754287991582282e-03,5.727952549421141959e-03,3.538488814150643827e-03,1.906022062269003376e-03,8.053368629437108756e-04,nan
nan,5.176264452877451334e-04,1.612222037232999847e-03,3.060426977175146127e-03,5.283512331184346197e-03,8.052212813640789724e-03,1.324400418202975951e-02,2.018750750699905075e-02,2.820647443378142966e-02,3.559308414142733218e-02,4.223464643218438619e-02,4.726717731850595128e-02,5.211948007042659092e-02,5.625095817615397009e-02,6.002140428687498253e-02,6.351946350856804702e-02,6.673527593261746604e-02,6.980856676773605773e-02,7.269456260388587610e-02,7.543754741897271132e-02,7.803451607864615724e-02,8.055953048913921943e-02,8.294657065586460987e-02,8.526069646545650360e-02,8.751293929078805822e-02,8.966195598666557021e-02,9.175051880717451092e-02,9.375771381474341803e-02,9.568827035602803233e-02,9.758476999030113452e-02,9.939740276223277271e-02,1.011291445445112736e-01,1.028196490636149318e-01,1.044281920874011449e-01,1.059719486465591637e-01,1.074322358339980243e-01,1.088294430331565033e-01,1.101403279692602516e-01,1.113782459432154093e-01,1.125534775190324133e-01,1.135956747343824791e-01,1.145730839915759802e-01,1.154572547979113295e-01,1.162157313855616686e-01,1.168771598132767875e-01,1.174432878584437123e-01,1.178894018331994031e-01,1.182204006597690205e-01,1.184605017478240208e-01,1.185534573575827144e-01,1.185193536510971840e-01,1.183645769472191772e-01,1.181148545089320268e-01,1.177630042611340633e-01,1.172697655753736079e-01,1.166484358851137826e-01,1.159527778109635116e-01,1.151324663878452864e-01,1.142322822586115949e-01,1.132141721857555933e-01,1.120913081465830241e-01,1.109068362877042302e-01,1.096171325316173950e-01,1.082758143637602144e-01,1.068587755097262920e-01,1.053351257605134178e-01,1.037587708709673123e-01,1.021045473014033367e-01,1.003928904166658670e-01,9.861532535400083233e-02,9.675931846896274058e-02,9.485255479704837733e-02,9.286363814325350463e-02,9.081885462866029490e-02,8.869340657957652807e-02,8.649813569850718642e-02,8.421959567762432597e-02,8.185069018399142304e-02,7.937243620472084205e-02,7.682404006297992305e-02,7.426189610882288905e-02,7.143011702288008802e-02,6.848793435284400433e-02,6.539280138359086780e-02,6.200575669600358331e-02,5.850343305760143109e-02,5.458646743704836934e-02,5.034445288529897089e-02,4.549158030675762299e-02,4.007107904125271902e-02,3.334670242412625385e-02,2.506121313704143261e-02,1.558717332299424177e-02,1.007822540053822727e-02,6.952023237149658301e-03,4.595501043317623893e-03,2.490497357156113648e-03,1.118623698346307227e-03,3.568548121942209314e-04,nan
nan,2.169472741526738105e-04,9.992166260829030058e-04,2.173418099112243464e-03,3.997419909435228833e-03,6.605250589211961350e-03,1.022133160462207133e-02,1.591111817781213147e-02,2.374592868549644728e-02,3.182859769857609294e-02,3.846808917391596194e-02,4.408636951949135990e-02,4.911924789014578130e-02,5.354055744103150549e-02,5.751810039047169920e-02,6.111299322437345471e-02,6.444217268505476881e-02,6.757233517520344623e-02,7.046704940977928378e-02,7.326941572458801899e-02,7.592855721079273812e-02,7.844171799069361850e-02,8.086399566087240642e-02,8.316556776859033995e-02,8.539552738081651606e-02,8.754348070460196696e-02,8.962078388889432867e-02,9.160074355544478575e-02,9.352960832552584258e-02,9.536148963685212032e-02,9.715234765432241570e-02,9.886740475153471541e-02,1.005103881676650546e-01,1.020759388395010570e-01,1.035910229877170519e-01,1.050238127752543965e-01,1.063805966039642059e-01,1.076488964664550907e-01,1.088295813845182591e-01,1.099394219925795557e-01,1.109754550125540279e-01,1.118999319849075386e-01,1.127483129948374796e-01,1.134819555299256405e-01,1.141140343069962232e-01,1.146468766077088641e-01,1.150777176082014019e-01,1.153705460752167400e-01,1.156056245294936613e-01,1.156916613035058883e-01,1.156586607153527735e-01,1.155390484429171666e-01,1.153081093175682414e-01,1.149182049110081816e-01,1.144677477131703924e-01,1.139014854024259921e-01,1.132144549170513576e-01,1.124478317906396074e-01,1.115562553337921536e-01,1.105591215575368880e-01,1.095099435641710695e-01,1.083592656220297157e-01,1.071439685028195421e-01,1.058301178448564639e-01,1.044380458999690786e-01,1.029715046570381792e-01,1.014334900288991481e-01,9.983707189371483770e-02,9.815189353897620095e-02,9.638692700055116747e-02,9.458735341110906247e-02,9.268007879951181693e-02,9.072857495143164808e-02,8.868681311332882178e-02,8.657760203856378067e-02,8.437256162876310972e-02,8.210278337072565713e-02,7.975764829777232112e-02,7.726778490962513124e-02,7.473184614735073339e-02,7.210282695511262274e-02,6.929054491842427665e-02,6.625039994305287339e-02,6.302277542335005256e-02,5.965567968864429749e-02,5.592263201650723992e-02,5.188952979741286164e-02,4.733903350641192886e-02,4.233429950734777375e-02,3.579580393692229079e-02,2.843438178142156797e-02,2.017361770104568464e-02,1.292377814018353700e-02,8.095631696967545143e-03,5.636705157410958067e-03,3.229172023876325168e-03,1.788210362693978730e-03,5.475968174399273997e-04,1.366104790017768906e-04,nan
nan,5.005220801047831613e-05,4.548287063033515831e-04,1.312276965190189515e-03,3.108796461211485278e-03,5.297382867793343046e-03,8.166661086060046648e-03,1.252813663342499870e-02,1.930409762359578188e-02,2.706016377585229726e-02,3.429256555848429755e-02,4.060500919451318080e-02,4.587775421428271633e-02,5.053124012761493061e-02,5.473148250703473855e-02,5.852810177551653198e-02,6.195576830433854876e-02,6.520162467917123283e-02,6.821140989720644865e-02,7.098992739599849222e-02,7.367372293497727320e-02,7.623391107270213740e-02,7.864700625977670556e-02,8.097449130113054672e-02,8.319760892255637086e-02,8.535526075026655946e-02,8.740285816043830147e-02,8.939399546593085333e-02,9.128169357086118874e-02,9.311833351606646492e-02,9.487539885497264791e-02,9.655656682819116488e-02,9.817316428022956898e-02,9.970678572448087029e-02,1.011899237016653935e-01,1.025772386124819968e-01,1.038948943242490458e-01,1.051161714815667114e-01,1.062761963706215923e-01,1.073475634476831475e-01,1.083361097873555001e-01,1.092349333323363314e-01,1.100095163585349534e-01,1.107497000676280069e-01,1.113701454590114992e-01,1.118755748875549794e-01,1.122736861257438157e-01,1.125922069125754876e-01,1.127724011269927995e-01,1.128501752822149151e-01,1.128473944735286782e-01,1.127181582832150752e-01,1.124413263607306757e-01,1.121362972251198215e-01,1.116654351689829877e-01,1.111349232096713602e-01,1.104820967198287124e-01,1.097342242894696757e-01,1.088794542116338221e-01,1.079586096921430483e-01,1.069100108132350069e-01,1.058224450871484701e-01,1.046289554894863499e-01,1.033482496709168114e-01,1.019893012263965587e-01,1.005734651386859524e-01,9.905515153840278864e-02,9.749632622661286163e-02,9.582789007786104984e-02,9.411960506106496760e-02,9.233530995192858193e-02,9.046715505062363771e-02,8.852507138045044577e-02,8.649941537425256954e-02,8.440304456382530240e-02,8.221199532641199070e-02,7.992357346619352598e-02,7.752849605717374026e-02,7.507160577206009600e-02,7.250585606898518609e-02,6.979650020525574039e-02,6.692084474170562070e-02,6.384080274550794909e-02,6.058841514026667291e-02,5.700934722215392908e-02,5.310624156191678241e-02,4.857106785110591740e-02,4.403836640143059949e-02,3.836944825619192229e-02,3.096286997474861913e-02,2.321949582416259900e-02,1.555870284791554918e-02,9.847907743946154174e-03,6.843825090893156278e-03,4.140284821735511385e-03,2.139618399801783942e-03,1.008853512581927084e-03,1.979623420316852683e-04,2.410845863454933829e-05,nan
nan,1.596676165566884230e-05,1.486162523998791154e-04,9.085039070112972985e-04,2.250748803066929694e-03,4.340922944125551707e-03,6.650989856364660988e-03,1.007933753119993371e-02,1.429944255110888844e-02,2.201278633176377217e-02,2.952611427642434783e-02,3.656645201233959391e-02,4.216841518115142795e-02,4.718506179194199845e-02,5.168670151810282609e-02,5.564842521478360893e-02,5.931281252683113375e-02,6.257658422515785523e-02,6.572780693551057152e-02,6.858454590290509467e-02,7.132420621428034457e-02,7.388573339010653940e-02,7.633758671747675750e-02,7.869786517121772629e-02,8.092183704155139767e-02,8.307468494694021655e-02,8.512469863990554386e-02,8.708115863082474539e-02,8.899056508252932429e-02,9.080512298023118989e-02,9.252217542707444342e-02,9.419263991925673485e-02,9.577133127997894402e-02,9.729974422395469558e-02,9.872817130147457099e-02,1.001005736862402296e-01,1.013924790101264350e-01,1.025902885841121909e-01,1.036800651051128924e-01,1.047370326110011740e-01,1.056948519141604204e-01,1.065458443073444283e-01,1.073412925948661473e-01,1.080255380212801347e-01,1.086003899138684448e-01,1.090907102476140894e-01,1.095013760351814941e-01,1.097817923892150799e-01,1.099605817192537138e-01,1.100513363210095102e-01,1.100402041295692468e-01,1.099051608755364784e-01,1.096710652682229420e-01,1.093518313198607039e-01,1.089261679757987378e-01,1.084002558376888081e-01,1.077558208889533714e-01,1.070377071998929175e-01,1.062172133504147714e-01,1.053090455956302296e-01,1.043162449369406664e-01,1.032571956952257619e-01,1.020761445430076325e-01,1.008352703888116819e-01,9.952308874297112473e-02,9.813385418167636098e-02,9.665453472892569786e-02,9.508575808929289885e-02,9.347467569494111173e-02,9.177078296127844093e-02,9.001830731783710959e-02,8.816160137431877653e-02,8.624083760523122699e-02,8.423761059079551416e-02,8.214822482183373187e-02,7.992576659254659044e-02,7.764831699645675933e-02,7.524238572743670306e-02,7.275566986333324715e-02,7.007926153261379021e-02,6.738807961435240579e-02,6.444388088491248556e-02,6.126853138920884678e-02,5.783356258255670235e-02,5.420474880937818651e-02,4.999419319749227875e-02,4.535891489985835467e-02,3.988980574076748248e-02,3.347315186916382385e-02,2.594045181350517967e-02,1.856388494552669091e-02,1.210360594801624876e-02,8.102268058831078174e-03,5.570106201204527013e-03,3.213944519642525019e-03,1.383912863050448111e-03,5.397831467809581073e-04,7.337489311171866042e-05,9.044285159085089555e-06,nan
nan,6.276476551029159242e-06,1.085245822508779979e-04,4.885290941544354667e-04,1.674943924713143215e-03,3.303120027459079382e-03,5.244210871439993968e-03,7.409233561166329862e-03,1.115198224152677206e-02,1.646557839092899905e-02,2.409377268153521309e-02,3.159651406358063991e-02,3.799159099794806316e-02,4.365500169450389073e-02,4.823092982725445121e-02,5.263085227718318493e-02,5.646478050362900569e-02,5.991458244821519508e-02,6.306204424622742499e-02,6.607833983769530184e-02,6.884107714824273805e-02,7.145250070809830434e-02,7.392678542152390786e-02,7.629849218896100904e-02,7.856186079054697236e-02,8.069657181098927046e-02,8.273929908012611634e-02,8.471557513539031137e-02,8.659584224610028524e-02,8.842125399372999239e-02,9.012585776014511718e-02,9.177634112842507352e-02,9.333929332964104042e-02,9.482529255679086888e-02,9.624695653923188987e-02,9.757930925130928190e-02,9.883860210528755408e-02,1.000162513448157597e-01,1.011077685033496820e-01,1.021085192155655741e-01,1.030320125449573215e-01,1.038907383460592471e-01,1.046219297483915317e-01,1.052829721815431441e-01,1.058571213904793834e-01,1.063116572090798406e-01,1.067134629866563905e-01,1.069973968521669427e-01,1.071584872514007997e-01,1.072483753009425417e-01,1.072313697977243657e-01,1.071010849098140427e-01,1.068908501724817883e-01,1.065909072987621942e-01,1.061695903066871144e-01,1.056466828938679714e-01,1.050356391678067547e-01,1.043418737254619283e-01,1.035457299062506470e-01,1.026776808256151252e-01,1.017171383702123733e-01,1.006512409885799153e-01,9.952460743799317056e-02,9.831388608209586100e-02,9.701297808785844246e-02,9.564114803789572350e-02,9.417572255885389709e-02,9.265715100476668020e-02,9.105602875848479993e-02,8.939147050749562951e-02,8.761144711288446074e-02,8.581278800608477253e-02,8.388150767397650753e-02,8.187866781566588426e-02,7.977239051285626992e-02,7.757507199606465675e-02,7.524774456279122170e-02,7.285879095351109613e-02,7.028145811056683845e-02,6.764117184382965886e-02,6.478731129579341774e-02,6.175055643103723874e-02,5.850033795743946052e-02,5.494702427830752689e-02,5.104149066968847320e-02,4.666580082482445907e-02,4.120958308794489544e-02,3.525459519285875643e-02,2.838230038495624663e-02,2.048747702293093192e-02,1.351448988733005424e-02,9.535797506774473450e-03,6.497208689122006831e-03,4.139291596265377154e-03,2.225913903542138614e-03,7.087604848273279263e-04,1.698330451980349155e-04,1.088436003218069520e-05,7.905574783049017018e-07,nan
nan,2.214376368955688812e-06,2.869067410522514982e-05,2.240703315650849456e-04,7.844399450656009201e-04,2.000360681133911932e-03,3.536805380880421890e-03,5.301293523213684508e-03,7.739397445729835276e-03,1.231508051886927996e-02,1.824720406969664033e-02,2.642260013498399021e-02,3.349889709507019447e-02,3.968864886347837212e-02,4.464192016231151305e-02,4.916976224430759379e-02,5.324047310804856659e-02,5.690115865649179178e-02,6.027376646980019820e-02,6.335633205393835510e-02,6.619404155668985601e-02,6.885898882705877855e-02,7.138534145872488246e-02,7.380310802452151597e-02,7.607057112819351485e-02,7.825963916398294418e-02,8.031039284693666791e-02,8.226271788407564511e-02,8.416098208411486314e-02,8.594729290712176117e-02,8.765813666096300416e-02,8.928721354254359754e-02,9.083495600881563714e-02,9.232229603509436999e-02,9.370103458592196621e-02,9.501962875565307665e-02,9.625069298021571296e-02,9.741225151567939333e-02,9.846862153505438198e-02,9.946532897294112219e-02,1.003596260208313995e-01,1.011933988111223537e-01,1.019188508511412322e-01,1.025599131582862478e-01,1.031135962236419540e-01,1.035812403451753377e-01,1.039460053774824838e-01,1.042078336171644304e-01,1.043668252780271810e-01,1.044464089577538390e-01,1.044328742015315226e-01,1.043176111767274983e-01,1.041174020755852858e-01,1.037902867642533367e-01,1.033884989868329718e-01,1.028933460920689602e-01,1.023152323440869871e-01,1.016287183299815489e-01,1.008587062457796807e-01,1.000134564501930778e-01,9.906664494653377728e-02,9.801355922485019412e-02,9.691698072598062264e-02,9.572324294100909015e-02,9.445396014703508203e-02,9.308821448364651419e-02,9.165073328424573618e-02,9.014238356704157296e-02,8.858623569389632857e-02,8.691217885200311355e-02,8.517844896657481013e-02,8.336249441659683568e-02,8.143285189808088798e-02,7.941162041903337965e-02,7.731268061447256479e-02,7.507345952900972008e-02,7.276177198324948470e-02,7.030448551606874319e-02,6.771876097072815348e-02,6.499879132343114319e-02,6.206083440114013722e-02,5.888587174846617728e-02,5.550178176355190229e-02,5.164920678171593810e-02,4.757284078253254389e-02,4.294852308799035345e-02,3.713592798565850533e-02,3.047407330297326536e-02,2.282804398859010139e-02,1.557539462499187184e-02,1.065576104195432340e-02,7.528063156489805258e-03,5.148441485898186398e-03,2.753690550287461909e-03,1.190500861946026858e-03,5.068382442726590813e-04,6.866925003236195072e-05,2.876624843514425692e-06,7.123369293598642763e-10,nan
nan,5.714176893835124032e-08,3.665537678012250194e-06,2.269723901372670778e-05,3.317727646611291553e-04,9.875008268888209664e-04,2.215045752212333775e-03,3.854350760288929780e-03,5.891616633032463815e-03,8.512073541222115944e-03,1.399727796073427927e-02,2.076917548246059314e-02,2.821103656789983663e-02,3.474782287832656191e-02,4.076234009273095593e-02,4.558214636469493791e-02,4.985492659767806756e-02,5.377780889261252195e-02,5.729001696899981705e-02,6.039854150971268876e-02,6.339162078519332277e-02,6.612763407498847834e-02,6.873232558640775258e-02,7.116848027400543564e-02,7.347160720682754942e-02,7.568557646306517395e-02,7.776954614166321778e-02,7.973447111297840562e-02,8.162753183851576000e-02,8.342037943110730547e-02,8.512850504471954072e-02,8.672649194018124119e-02,8.828352127730930421e-02,8.973732384214894164e-02,9.110020591983591931e-02,9.241504462748026394e-02,9.362627784615190629e-02,9.476383184983089292e-02,9.581537169388051889e-02,9.677253975294694555e-02,9.766763964409731769e-02,9.846311013721795180e-02,9.916913376136164693e-02,9.979753368490104637e-02,1.003399054441257848e-01,1.007678203201352596e-01,1.011466903418050123e-01,1.014019575219815977e-01,1.015638246268711770e-01,1.016353805454029563e-01,1.016304976121730624e-01,1.015238313381393448e-01,1.012978419170508099e-01,1.010071642943414227e-01,1.006148936798099275e-01,1.001208793818620518e-01,9.956719660394933169e-02,9.888054652167022063e-02,9.814260424909776459e-02,9.731402171608430351e-02,9.636652272546770981e-02,9.536153828403311217e-02,9.427872775104760572e-02,9.309890648476719377e-02,9.183242982445392888e-02,9.053629315608929806e-02,8.908326383168804763e-02,8.758057183498242637e-02,8.604651629030249382e-02,8.439320072662841177e-02,8.265149119376745401e-02,8.082303796574252797e-02,7.889632486507520970e-02,7.688927525506082661e-02,7.474159317656058066e-02,7.250915426152269860e-02,7.013473224584411414e-02,6.769467028764886152e-02,6.500266099798875097e-02,6.222185101576666738e-02,5.915606588264711585e-02,5.580818227001938664e-02,5.220866271040153911e-02,4.823329268724049768e-02,4.350256196790956709e-02,3.820711437519733189e-02,3.210688683624000894e-02,2.421668924177916224e-02,1.694920034481076088e-02,1.204448318901488700e-02,8.429688034472632499e-03,6.118495207804204236e-03,3.776964373657262092e-03,1.740678840248009902e-03,6.721508936061319555e-04,2.003089349708296607e-04,3.414764642583155424e-05,3.714180282035794124e-07,8.553924394115082184e-09,nan
