nan,0.000000000000000000e+00,0.000000000000000000e+00,0.000000000000000000e+00,0.000000000000000000e+00,0.000000000000000000e+00,0.000000000000000000e+00,0.000000000000000000e+00,0.000000000000000000e+00,0.000000000000000000e+00,0.000000000000000000e+00,0.000000000000000000e+00,0.000000000000000000e+00,0.000000000000000000e+00,0.000000000000000000e+00,0.000000000000000000e+00,0.000000000000000000e+00,0.000000000000000000e+00,0.000000000000000000e+00,0.000000000000000000e+00,0.000000000000000000e+00,0.000000000000000000e+00,0.000000000000000000e+00,0.000000000000000000e+00,0.000000000000000000e+00,0.000000000000000000e+00,0.000000000000000000e+00,0.000000000000000000e+00,0.000000000000000000e+00,0.000000000000000000e+00,0.000000000000000000e+00,0.000000000000000000e+00,0.000000000000000000e+00,0.000000000000000000e+00,0.000000000000000000e+00,0.000000000000000000e+00,0.000000000000000000e+00,0.000000000000000000e+00,0.000000000000000000e+00,0.000000000000000000e+00,0.000000000000000000e+00,0.000000000000000000e+00,0.000000000000000000e+00,0.000000000000000000e+00,0.000000000000000000e+00,2.796291545793546870e-02,2.514340902277048539e-01,2.520488092058366658e-01,2.543218513007569070e-01,2.548638609577495440e-01,2.532269017353102059e-01,2.525867932526370541e-01,2.518286776622892242e-01,1.859721841256087860e-01,1.961550388654632535e-02,0.000000000000000000e+00,0.000000000000000000e+00,0.000000000000000000e+00,0.000000000000000000e+00,0.000000000000000000e+00,0.000000000000000000e+00,0.000000000000000000e+00,0.000000000000000000e+00,0.000000000000000000e+00,0.000000000000000000e+00,0.000000000000000000e+00,0.000000000000000000e+00,0.000000000000000000e+00,0.000000000000000000e+00,0.000000000000000000e+00,0.000000000000000000e+00,0.000000000000000000e+00,0.000000000000000000e+00,0.000000000000000000e+00,0.000000000000000000e+00,0.000000000000000000e+00,0.000000000000000000e+00,0.000000000000000000e+00,0.000000000000000000e+00,0.000000000000000000e+00,0.000000000000000000e+00,0.000000000000000000e+00,0.000000000000000000e+00,0.000000000000000000e+00,0.000000000000000000e+00,0.000000000000000000e+00,0.000000000000000000e+00,0.000000000000000000e+00,0.000000000000000000e+00,0.000000000000000000e+00,0.000000000000000000e+00,0.000000000000000000e+00,0.000000000000000000e+00,0.000000000000000000e+00,0.000000000000000000e+00,0.000000000000000000e+00,0.000000000000000000e+00,0.000000000000000000e+00,0.000000000000000000e+00,nan
nan,0.000000000000000000e+00,0.000000000000000000e+00,0.000000000000000000e+00,0.000000000000000000e+00,0.000000000000000000e+00,0.000000000000000000e+00,0.000000000000000000e+00,0.000000000000000000e+00,0.000000000000000000e+00,0.000000000000000000e+00,0.000000000000000000e+00,0.000000000000000000e+00,0.000000000000000000e+00,0.000000000000000000e+00,0.000000000000000000e+00,0.000000000000000000e+00,0.000000000000000000e+00,0.000000000000000000e+00,0.000000000000000000e+00,0.000000000000000000e+00,0.000000000000000000e+00,0.000000000000000000e+00,0.000000000000000000e+00,0.000000000000000000e+00,0.000000000000000000e+00,0.000000000000000000e+00,0.000000000000000000e+00,0.000000000000000000e+00,0.000000000000000000e+00,0.000000000000000000e+00,0.000000000000000000e+00,0.000000000000000000e+00,0.000000000000000000e+00,0.000000000000000000e+00,0.000000000000000000e+00,0.000000000000000000e+00,0.000000000000000000e+00,0.000000000000000000e+00,0.000000000000000000e+00,0.000000000000000000e+00,0.000000000000000000e+00,0.000000000000000000e+00,0.000000000000000000e+00,0.000000000000000000e+00,1.226825519755984500e-01,2.506076413416918891e-01,2.543169038898885903e-01,2.529057305893930852e-01,2.529977437913322191e-01,2.548202502598332364e-01,2.528965592145229202e-01,2.482038711917883833e-01,2.447803348115203947e-01,5.274087052249968460e-02,0.000000000000000000e+00,0.000000000000000000e+00,0.000000000000000000e+00,0.000000000000000000e+00,0.000000000000000000e+00,0.000000000000000000e+00,0.000000000000000000e+00,0.000000000000000000e+00,0.000000000000000000e+00,0.000000000000000000e+00,0.000000000000000000e+00,0.000000000000000000e+00,0.000000000000000000e+00,0.000000000000000000e+00,0.000000000000000000e+00,0.000000000000000000e+00,0.000000000000000000e+00,0.000000000000000000e+00,0.000000000000000000e+00,0.000000000000000000e+00,0.000000000000000000e+00,0.000000000000000000e+00,0.000000000000000000e+00,0.000000000000000000e+00,0.000000000000000000e+00,0.000000000000000000e+00,0.000000000000000000e+00,0.000000000000000000e+00,0.000000000000000000e+00,0.000000000000000000e+00,0.000000000000000000e+00,0.000000000000000000e+00,0.000000000000000000e+00,0.000000000000000000e+00,0.000000000000000000e+00,0.000000000000000000e+00,0.000000000000000000e+00,0.000000000000000000e+00,0.000000000000000000e+00,0.000000000000000000e+00,0.000000000000000000e+00,0.000000000000000000e+00,0.000000000000000000e+00,0.000000000000000000e+00,nan
nan,0.000000000000000000e+00,0.000000000000000000e+00,0.000000000000000000e+00,0.000000000000000000e+00,0.000000000000000000e+00,0.000000000000000000e+00,0.000000000000000000e+00,0.000000000000000000e+00,0.000000000000000000e+00,0.000000000000000000e+00,0.000000000000000000e+00,0.000000000000000000e+00,0.000000000000000000e+00,0.000000000000000000e+00,0.000000000000000000e+00,0.000000000000000000e+00,0.000000000000000000e+00,0.000000000000000000e+00,0.000000000000000000e+00,0.000000000000000000e+00,0.000000000000000000e+00,0.000000000000000000e+00,0.000000000000000000e+00,0.000000000000000000e+00,0.000000000000000000e+00,0.000000000000000000e+00,0.000000000000000000e+00,0.000000000000000000e+00,0.000000000000000000e+00,0.000000000000000000e+00,0.000000000000000000e+00,0.000000000000000000e+00,0.000000000000000000e+00,0.000000000000000000e+00,0.000000000000000000e+00,0.000000000000000000e+00,0.000000000000000000e+00,0.000000000000000000e+00,0.000000000000000000e+00,0.000000000000000000e+00,0.000000000000000000e+00,0.000000000000000000e+00,0.000000000000000000e+00,0.000000000000000000e+00,5.637005876565726048e-02,2.572969087022987655e-01,2.547280980456821942e-01,2.529412839284004288e-01,2.515983525779207919e-01,2.521742859592127628e-01,2.516372931917429945e-01,2.488606603714481336e-01,2.485381687388198702e-01,9.424397237605794397e-02,0.000000000000000000e+00,0.000000000000000000e+00,0.000000000000000000e+00,0.000000000000000000e+00,0.000000000000000000e+00,0.000000000000000000e+00,0.000000000000000000e+00,0.000000000000000000e+00,0.000000000000000000e+00,0.000000000000000000e+00,0.000000000000000000e+00,0.000000000000000000e+00,0.000000000000000000e+00,0.000000000000000000e+00,0.000000000000000000e+00,0.000000000000000000e+00,0.000000000000000000e+00,0.000000000000000000e+00,0.000000000000000000e+00,0.000000000000000000e+00,0.000000000000000000e+00,0.000000000000000000e+00,0.000000000000000000e+00,0.000000000000000000e+00,0.000000000000000000e+00,0.000000000000000000e+00,0.000000000000000000e+00,0.000000000000000000e+00,0.000000000000000000e+00,0.000000000000000000e+00,0.000000000000000000e+00,0.000000000000000000e+00,0.000000000000000000e+00,0.000000000000000000e+00,0.000000000000000000e+00,0.000000000000000000e+00,0.000000000000000000e+00,0.000000000000000000e+00,0.000000000000000000e+00,0.000000000000000000e+00,0.000000000000000000e+00,0.000000000000000000e+00,0.000000000000000000e+00,0.000000000000000000e+00,nan
nan,0.000000000000000000e+00,0.000000000000000000e+00,0.000000000000000000e+00,0.000000000000000000e+00,0.000000000000000000e+00,0.000000000000000000e+00,0.000000000000000000e+00,0.000000000000000000e+00,0.000000000000000000e+00,0.000000000000000000e+00,0.000000000000000000e+00,0.000000000000000000e+00,0.000000000000000000e+00,0.000000000000000000e+00,0.000000000000000000e+00,0.000000000000000000e+00,0.000000000000000000e+00,0.000000000000000000e+00,0.000000000000000000e+00,0.000000000000000000e+00,0.000000000000000000e+00,0.000000000000000000e+00,0.000000000000000000e+00,0.000000000000000000e+00,0.000000000000000000e+00,0.000000000000000000e+00,0.000000000000000000e+00,0.000000000000000000e+00,0.000000000000000000e+00,0.000000000000000000e+00,0.000000000000000000e+00,0.000000000000000000e+00,0.000000000000000000e+00,0.000000000000000000e+00,0.000000000000000000e+00,0.000000000000000000e+00,0.000000000000000000e+00,0.000000000000000000e+00,0.000000000000000000e+00,0.000000000000000000e+00,0.000000000000000000e+00,0.000000000000000000e+00,0.000000000000000000e+00,0.000000000000000000e+00,1.896620886151980379e-01,2.620767141013381485e-01,2.593324440836221045e-01,2.556035958653228857e-01,2.542904623703464151e-01,2.511174587644481870e-01,2.535478046074072234e-01,2.524319445707189913e-01,2.502595027137289874e-01,1.322771693555354622e-01,0.000000000000000000e+00,0.000000000000000000e+00,0.000000000000000000e+00,0.000000000000000000e+00,0.000000000000000000e+00,0.000000000000000000e+00,0.000000000000000000e+00,0.000000000000000000e+00,0.000000000000000000e+00,0.000000000000000000e+00,0.000000000000000000e+00,0.000000000000000000e+00,0.000000000000000000e+00,0.000000000000000000e+00,0.000000000000000000e+00,0.000000000000000000e+00,0.000000000000000000e+00,0.000000000000000000e+00,0.000000000000000000e+00,0.000000000000000000e+00,0.000000000000000000e+00,0.000000000000000000e+00,0.000000000000000000e+00,0.000000000000000000e+00,0.000000000000000000e+00,0.000000000000000000e+00,0.000000000000000000e+00,0.000000000000000000e+00,0.000000000000000000e+00,0.000000000000000000e+00,0.000000000000000000e+00,0.000000000000000000e+00,0.000000000000000000e+00,0.000000000000000000e+00,0.000000000000000000e+00,0.000000000000000000e+00,0.000000000000000000e+00,0.000000000000000000e+00,0.000000000000000000e+00,0.000000000000000000e+00,0.000000000000000000e+00,0.000000000000000000e+00,0.000000000000000000e+00,0.000000000000000000e+00,nan
nan,0.000000000000000000e+00,0.000000000000000000e+00,0.000000000000000000e+00,0.000000000000000000e+00,0.000000000000000000e+00,0.000000000000000000e+00,0.000000000000000000e+00,0.000000000000000000e+00,0.000000000000000000e+00,0.000000000000000000e+00,0.000000000000000000e+00,0.000000000000000000e+00,0.000000000000000000e+00,0.000000000000000000e+00,0.000000000000000000e+00,0.000000000000000000e+00,0.000000000000000000e+00,0.000000000000000000e+00,0.000000000000000000e+00,0.000000000000000000e+00,0.000000000000000000e+00,0.000000000000000000e+00,0.000000000000000000e+00,0.000000000000000000e+00,0.000000000000000000e+00,0.000000000000000000e+00,0.000000000000000000e+00,0.000000000000000000e+00,0.000000000000000000e+00,0.000000000000000000e+00,0.000000000000000000e+00,0.000000000000000000e+00,0.000000000000000000e+00,0.000000000000000000e+00,0.000000000000000000e+00,0.000000000000000000e+00,0.000000000000000000e+00,0.000000000000000000e+00,0.000000000000000000e+00,0.000000000000000000e+00,0.000000000000000000e+00,0.000000000000000000e+00,0.000000000000000000e+00,0.000000000000000000e+00,4.229933566833211922e-02,2.524842201278778564e-01,2.541342281967191585e-01,2.545530937342245781e-01,2.532506909617229240e-01,2.532793191177850622e-01,2.533407399428400097e-01,2.519092849034620940e-01,2.509741533370676292e-01,1.681665902469096641e-01,0.000000000000000000e+00,0.000000000000000000e+00,0.000000000000000000e+00,0.000000000000000000e+00,0.000000000000000000e+00,0.000000000000000000e+00,0.000000000000000000e+00,0.000000000000000000e+00,0.000000000000000000e+00,0.000000000000000000e+00,0.000000000000000000e+00,0.000000000000000000e+00,0.000000000000000000e+00,0.000000000000000000e+00,0.000000000000000000e+00,0.000000000000000000e+00,0.000000000000000000e+00,0.000000000000000000e+00,0.000000000000000000e+00,0.000000000000000000e+00,0.000000000000000000e+00,0.000000000000000000e+00,0.000000000000000000e+00,0.000000000000000000e+00,0.000000000000000000e+00,0.000000000000000000e+00,0.000000000000000000e+00,0.000000000000000000e+00,0.000000000000000000e+00,0.000000000000000000e+00,0.000000000000000000e+00,0.000000000000000000e+00,0.000000000000000000e+00,0.000000000000000000e+00,0.000000000000000000e+00,0.000000000000000000e+00,0.000000000000000000e+00,0.000000000000000000e+00,0.000000000000000000e+00,0.000000000000000000e+00,0.000000000000000000e+00,0.000000000000000000e+00,0.000000000000000000e+00,0.000000000000000000e+00,nan
nan,0.000000000000000000e+00,0.000000000000000000e+00,0.000000000000000000e+00,0.000000000000000000e+00,0.000000000000000000e+00,0.000000000000000000e+00,0.000000000000000000e+00,0.000000000000000000e+00,0.000000000000000000e+00,0.000000000000000000e+00,0.000000000000000000e+00,0.000000000000000000e+00,0.000000000000000000e+00,0.000000000000000000e+00,0.000000000000000000e+00,0.000000000000000000e+00,0.000000000000000000e+00,0.000000000000000000e+00,0.000000000000000000e+00,0.000000000000000000e+00,0.000000000000000000e+00,0.000000000000000000e+00,0.000000000000000000e+00,0.000000000000000000e+00,0.000000000000000000e+00,0.000000000000000000e+00,0.000000000000000000e+00,0.000000000000000000e+00,0.000000000000000000e+00,0.000000000000000000e+00,0.000000000000000000e+00,0.000000000000000000e+00,0.000000000000000000e+00,0.000000000000000000e+00,0.000000000000000000e+00,0.000000000000000000e+00,0.000000000000000000e+00,0.000000000000000000e+00,0.000000000000000000e+00,0.000000000000000000e+00,0.000000000000000000e+00,0.000000000000000000e+00,0.000000000000000000e+00,0.000000000000000000e+00,1.823895153853987705e-01,2.418227248867367285e-01,2.504020809850510676e-01,2.517068060060907442e-01,2.526058782690953075e-01,2.535377686315527512e-01,2.556050972284648060e-01,2.558778667458319611e-01,2.541288218170263957e-01,9.061517924160954196e-02,0.000000000000000000e+00,0.000000000000000000e+00,0.000000000000000000e+00,0.000000000000000000e+00,0.000000000000000000e+00,0.000000000000000000e+00,0.000000000000000000e+00,0.000000000000000000e+00,0.000000000000000000e+00,0.000000000000000000e+00,0.000000000000000000e+00,0.000000000000000000e+00,0.000000000000000000e+00,0.000000000000000000e+00,0.000000000000000000e+00,0.000000000000000000e+00,0.000000000000000000e+00,0.000000000000000000e+00,0.000000000000000000e+00,0.000000000000000000e+00,0.000000000000000000e+00,0.000000000000000000e+00,0.000000000000000000e+00,0.000000000000000000e+00,0.000000000000000000e+00,0.000000000000000000e+00,0.000000000000000000e+00,0.000000000000000000e+00,0.000000000000000000e+00,0.000000000000000000e+00,0.000000000000000000e+00,0.000000000000000000e+00,0.000000000000000000e+00,0.000000000000000000e+00,0.000000000000000000e+00,0.000000000000000000e+00,0.000000000000000000e+00,0.000000000000000000e+00,0.000000000000000000e+00,0.000000000000000000e+00,0.000000000000000000e+00,0.000000000000000000e+00,0.000000000000000000e+00,0.000000000000000000e+00,nan
nan,0.000000000000000000e+00,0.000000000000000000e+00,0.000000000000000000e+00,0.000000000000000000e+00,0.000000000000000000e+00,0.000000000000000000e+00,0.000000000000000000e+00,0.000000000000000000e+00,0.000000000000000000e+00,0.000000000000000000e+00,0.000000000000000000e+00,0.000000000000000000e+00,0.000000000000000000e+00,0.000000000000000000e+00,0.000000000000000000e+00,0.000000000000000000e+00,0.000000000000000000e+00,0.000000000000000000e+00,0.000000000000000000e+00,0.000000000000000000e+00,0.000000000000000000e+00,0.000000000000000000e+00,0.000000000000000000e+00,0.000000000000000000e+00,0.000000000000000000e+00,0.000000000000000000e+00,0.000000000000000000e+00,0.000000000000000000e+00,0.000000000000000000e+00,0.000000000000000000e+00,0.000000000000000000e+00,0.000000000000000000e+00,0.000000000000000000e+00,0.000000000000000000e+00,0.000000000000000000e+00,0.000000000000000000e+00,0.000000000000000000e+00,0.000000000000000000e+00,0.000000000000000000e+00,0.000000000000000000e+00,0.000000000000000000e+00,0.000000000000000000e+00,0.000000000000000000e+00,0.000000000000000000e+00,1.081199415491599092e-01,2.478693183753972740e-01,2.489955901414994399e-01,2.512721382251950630e-01,2.534494158385562357e-01,2.567233442009012601e-01,2.582773702708626162e-01,2.584728773343909491e-01,2.596801921359245813e-01,1.868312657062817794e-01,0.000000000000000000e+00,0.000000000000000000e+00,0.000000000000000000e+00,0.000000000000000000e+00,0.000000000000000000e+00,0.000000000000000000e+00,0.000000000000000000e+00,0.000000000000000000e+00,0.000000000000000000e+00,0.000000000000000000e+00,0.000000000000000000e+00,0.000000000000000000e+00,0.000000000000000000e+00,0.000000000000000000e+00,0.000000000000000000e+00,0.000000000000000000e+00,0.000000000000000000e+00,0.000000000000000000e+00,0.000000000000000000e+00,0.000000000000000000e+00,0.000000000000000000e+00,0.000000000000000000e+00,0.000000000000000000e+00,0.000000000000000000e+00,0.000000000000000000e+00,0.000000000000000000e+00,0.000000000000000000e+00,0.000000000000000000e+00,0.000000000000000000e+00,0.000000000000000000e+00,0.000000000000000000e+00,0.000000000000000000e+00,0.000000000000000000e+00,0.000000000000000000e+00,0.000000000000000000e+00,0.000000000000000000e+00,0.000000000000000000e+00,0.000000000000000000e+00,0.000000000000000000e+00,0.000000000000000000e+00,0.000000000000000000e+00,0.000000000000000000e+00,0.000000000000000000e+00,0.000000000000000000e+00,nan
nan,0.000000000000000000e+00,0.000000000000000000e+00,0.000000000000000000e+00,0.000000000000000000e+00,0.000000000000000000e+00,0.000000000000000000e+00,0.000000000000000000e+00,0.000000000000000000e+00,0.000000000000000000e+00,0.000000000000000000e+00,0.000000000000000000e+00,0.000000000000000000e+00,0.000000000000000000e+00,0.000000000000000000e+00,0.000000000000000000e+00,0.000000000000000000e+00,0.000000000000000000e+00,0.000000000000000000e+00,0.000000000000000000e+00,0.000000000000000000e+00,0.000000000000000000e+00,0.000000000000000000e+00,0.000000000000000000e+00,0.000000000000000000e+00,0.000000000000000000e+00,0.000000000000000000e+00,0.000000000000000000e+00,0.000000000000000000e+00,0.000000000000000000e+00,0.000000000000000000e+00,0.000000000000000000e+00,0.000000000000000000e+00,0.000000000000000000e+00,0.000000000000000000e+00,0.000000000000000000e+00,0.000000000000000000e+00,0.000000000000000000e+00,0.000000000000000000e+00,0.000000000000000000e+00,0.000000000000000000e+00,0.000000000000000000e+00,0.000000000000000000e+00,0.000000000000000000e+00,0.000000000000000000e+00,1.558148415326131020e-01,2.505812392266704713e-01,2.480973232593047528e-01,2.511136781157042863e-01,2.536960510282830206e-01,2.575596519983506250e-01,2.601304668585700530e-01,2.624579773893090939e-01,2.657924051080801098e-01,1.597536126084099783e-01,0.000000000000000000e+00,0.000000000000000000e+00,0.000000000000000000e+00,0.000000000000000000e+00,0.000000000000000000e+00,0.000000000000000000e+00,0.000000000000000000e+00,0.000000000000000000e+00,0.000000000000000000e+00,0.000000000000000000e+00,0.000000000000000000e+00,0.000000000000000000e+00,0.000000000000000000e+00,0.000000000000000000e+00,0.000000000000000000e+00,0.000000000000000000e+00,0.000000000000000000e+00,0.000000000000000000e+00,0.000000000000000000e+00,0.000000000000000000e+00,0.000000000000000000e+00,0.000000000000000000e+00,0.000000000000000000e+00,0.000000000000000000e+00,0.000000000000000000e+00,0.000000000000000000e+00,0.000000000000000000e+00,0.000000000000000000e+00,0.000000000000000000e+00,0.000000000000000000e+00,0.000000000000000000e+00,0.000000000000000000e+00,0.000000000000000000e+00,0.000000000000000000e+00,0.000000000000000000e+00,0.000000000000000000e+00,0.000000000000000000e+00,0.000000000000000000e+00,0.000000000000000000e+00,0.000000000000000000e+00,0.000000000000000000e+00,0.000000000000000000e+00,0.000000000000000000e+00,0.000000000000000000e+00,nan
nan,0.000000000000000000e+00,0.000000000000000000e+00,0.000000000000000000e+00,0.000000000000000000e+00,0.000000000000000000e+00,0.000000000000000000e+00,0.000000000000000000e+00,0.000000000000000000e+00,0.000000000000000000e+00,0.000000000000000000e+00,0.000000000000000000e+00,0.000000000000000000e+00,0.000000000000000000e+00,0.000000000000000000e+00,0.000000000000000000e+00,0.000000000000000000e+00,0.000000000000000000e+00,0.000000000000000000e+00,0.000000000000000000e+00,0.000000000000000000e+00,0.000000000000000000e+00,0.000000000000000000e+00,0.000000000000000000e+00,0.000000000000000000e+00,0.000000000000000000e+00,0.000000000000000000e+00,0.000000000000000000e+00,0.000000000000000000e+00,0.000000000000000000e+00,0.000000000000000000e+00,0.000000000000000000e+00,0.000000000000000000e+00,0.000000000000000000e+00,0.000000000000000000e+00,0.000000000000000000e+00,0.000000000000000000e+00,0.000000000000000000e+00,0.000000000000000000e+00,0.000000000000000000e+00,0.000000000000000000e+00,0.000000000000000000e+00,0.000000000000000000e+00,0.000000000000000000e+00,0.000000000000000000e+00,8.734532623924301520e-02,2.077466197254510816e-01,2.456787943273533448e-01,2.477568096987584623e-01,2.520301645334533935e-01,2.551784427459522497e-01,2.584001076153176202e-01,2.649916583456611852e-01,2.733015740340839494e-01,1.168397655448718264e-01,0.000000000000000000e+00,0.000000000000000000e+00,0.000000000000000000e+00,0.000000000000000000e+00,0.000000000000000000e+00,0.000000000000000000e+00,0.000000000000000000e+00,0.000000000000000000e+00,0.000000000000000000e+00,0.000000000000000000e+00,0.000000000000000000e+00,0.000000000000000000e+00,0.000000000000000000e+00,0.000000000000000000e+00,0.000000000000000000e+00,0.000000000000000000e+00,0.000000000000000000e+00,0.000000000000000000e+00,0.000000000000000000e+00,0.000000000000000000e+00,0.000000000000000000e+00,0.000000000000000000e+00,0.000000000000000000e+00,0.000000000000000000e+00,0.000000000000000000e+00,0.000000000000000000e+00,0.000000000000000000e+00,0.000000000000000000e+00,0.000000000000000000e+00,0.000000000000000000e+00,0.000000000000000000e+00,0.000000000000000000e+00,0.000000000000000000e+00,0.000000000000000000e+00,0.000000000000000000e+00,0.000000000000000000e+00,0.000000000000000000e+00,0.000000000000000000e+00,0.000000000000000000e+00,0.000000000000000000e+00,0.000000000000000000e+00,0.000000000000000000e+00,0.000000000000000000e+00,0.000000000000000000e+00,nan
nan,0.000000000000000000e+00,0.000000000000000000e+00,0.000000000000000000e+00,0.000000000000000000e+00,0.000000000000000000e+00,0.000000000000000000e+00,0.000000000000000000e+00,0.000000000000000000e+00,0.000000000000000000e+00,0.000000000000000000e+00,0.000000000000000000e+00,0.000000000000000000e+00,0.000000000000000000e+00,0.000000000000000000e+00,0.000000000000000000e+00,0.000000000000000000e+00,0.000000000000000000e+00,0.000000000000000000e+00,0.000000000000000000e+00,0.000000000000000000e+00,0.000000000000000000e+00,0.000000000000000000e+00,0.000000000000000000e+00,0.000000000000000000e+00,0.000000000000000000e+00,0.000000000000000000e+00,0.000000000000000000e+00,0.000000000000000000e+00,0.000000000000000000e+00,0.000000000000000000e+00,0.000000000000000000e+00,0.000000000000000000e+00,0.000000000000000000e+00,0.000000000000000000e+00,0.000000000000000000e+00,0.000000000000000000e+00,0.000000000000000000e+00,0.000000000000000000e+00,0.000000000000000000e+00,0.000000000000000000e+00,0.000000000000000000e+00,0.000000000000000000e+00,0.000000000000000000e+00,0.000000000000000000e+00,1.366179473708898917e-01,2.430647741829998765e-01,2.482561566187427293e-01,2.495737181356986745e-01,2.517395159965772899e-01,2.534373818949970936e-01,2.523029350978022167e-01,2.502145070911365732e-01,2.433130457899660148e-01,1.292613459191868930e-01,0.000000000000000000e+00,0.000000000000000000e+00,0.000000000000000000e+00,0.000000000000000000e+00,0.000000000000000000e+00,0.000000000000000000e+00,0.000000000000000000e+00,0.000000000000000000e+00,0.000000000000000000e+00,0.000000000000000000e+00,0.000000000000000000e+00,0.000000000000000000e+00,0.000000000000000000e+00,0.000000000000000000e+00,0.000000000000000000e+00,0.000000000000000000e+00,0.000000000000000000e+00,0.000000000000000000e+00,0.000000000000000000e+00,0.000000000000000000e+00,0.000000000000000000e+00,0.000000000000000000e+00,0.000000000000000000e+00,0.000000000000000000e+00,0.000000000000000000e+00,0.000000000000000000e+00,0.000000000000000000e+00,0.000000000000000000e+00,0.000000000000000000e+00,0.000000000000000000e+00,0.000000000000000000e+00,0.000000000000000000e+00,0.000000000000000000e+00,0.000000000000000000e+00,0.000000000000000000e+00,0.000000000000000000e+00,0.000000000000000000e+00,0.000000000000000000e+00,0.000000000000000000e+00,0.000000000000000000e+00,0.000000000000000000e+00,0.000000000000000000e+00,0.000000000000000000e+00,0.000000000000000000e+00,nan
nan,0.000000000000000000e+00,0.000000000000000000e+00,0.000000000000000000e+00,0.000000000000000000e+00,0.000000000000000000e+00,0.000000000000000000e+00,0.000000000000000000e+00,0.000000000000000000e+00,0.000000000000000000e+00,0.000000000000000000e+00,0.000000000000000000e+00,0.000000000000000000e+00,0.000000000000000000e+00,0.000000000000000000e+00,0.000000000000000000e+00,0.000000000000000000e+00,2.345578321610644612e-02,2.014562017576520744e-02,0.000000000000000000e+00,0.000000000000000000e+00,0.000000000000000000e+00,0.000000000000000000e+00,0.000000000000000000e+00,0.000000000000000000e+00,0.000000000000000000e+00,0.000000000000000000e+00,0.000000000000000000e+00,0.000000000000000000e+00,0.000000000000000000e+00,0.000000000000000000e+00,0.000000000000000000e+00,2.192449733963169889e-02,0.000000000000000000e+00,0.000000000000000000e+00,0.000000000000000000e+00,0.000000000000000000e+00,0.000000000000000000e+00,0.000000000000000000e+00,0.000000000000000000e+00,0.000000000000000000e+00,0.000000000000000000e+00,0.000000000000000000e+00,0.000000000000000000e+00,0.000000000000000000e+00,1.268011155463762973e-01,2.463574194554374319e-01,2.515249823692396469e-01,2.533325075113970204e-01,2.547247669297105777e-01,2.542901351944691912e-01,2.508185115690337863e-01,2.476764148924412712e-01,2.277475913930513962e-01,2.165147548049318749e-01,0.000000000000000000e+00,3.937046548259294509e-02,3.874230148871270207e-02,0.000000000000000000e+00,0.000000000000000000e+00,0.000000000000000000e+00,0.000000000000000000e+00,0.000000000000000000e+00,0.000000000000000000e+00,0.000000000000000000e+00,0.000000000000000000e+00,0.000000000000000000e+00,0.000000000000000000e+00,0.000000000000000000e+00,0.000000000000000000e+00,0.000000000000000000e+00,0.000000000000000000e+00,2.219304616758894719e-02,0.000000000000000000e+00,0.000000000000000000e+00,2.099671489097875224e-02,0.000000000000000000e+00,0.000000000000000000e+00,0.000000000000000000e+00,0.000000000000000000e+00,0.000000000000000000e+00,0.000000000000000000e+00,3.060207709289979733e-03,0.000000000000000000e+00,0.000000000000000000e+00,0.000000000000000000e+00,0.000000000000000000e+00,0.000000000000000000e+00,2.459430471120450240e-03,0.000000000000000000e+00,9.574537265677314501e-03,0.000000000000000000e+00,0.000000000000000000e+00,5.443961360025955862e-03,0.000000000000000000e+00,0.000000000000000000e+00,0.000000000000000000e+00,0.000000000000000000e+00,0.000000000000000000e+00,nan
nan,4.684880869866875353e-03,8.458383097080943852e-03,2.920438243609111643e-03,4.303749236603916957e-03,8.826146642544078699e-03,1.490400976815875814e-02,1.376318011592075896e-02,3.183950190205640796e-02,4.495653112062526074e-02,1.217183061283387199e-02,4.888113412123345353e-02,8.585632860772508118e-03,7.104863849639647677e-02,4.946252859292529780e-02,3.530255958526101745e-02,5.669631798145562812e-02,7.221826364962809219e-02,8.925261830649273975e-02,5.979197044918975468e-02,4.224192650727897486e-02,5.794196844580141309e-02,1.053646629842697191e-02,6.046622533735854232e-02,5.276643339764092167e-02,5.983088552826958118e-02,4.942112800779183135e-02,9.893690012670763867e-02,1.065998008695653448e-01,7.074141243131457091e-02,6.806123301416996951e-02,1.140822917337414449e-01,1.067504304857594122e-01,1.790263908370255327e-02,9.663058575881577905e-02,4.916734743329306823e-02,3.942689799043816445e-02,6.673498385353616134e-03,4.470426271165511833e-02,2.539135145637209934e-02,7.235344583046884881e-02,7.969191185759863516e-02,3.273914981568201016e-02,1.077236869461107027e-01,1.338875550393761604e-01,2.105353807552077239e-01,2.398325351410786066e-01,2.504174213007192007e-01,2.516766845038465594e-01,2.563445227367868173e-01,2.546259309702664231e-01,2.504624918848651904e-01,2.435582555243526737e-01,2.329139932697143478e-01,2.254133661324440596e-01,1.342186036310399622e-01,1.805087284636558431e-01,4.096159889389486275e-02,9.133707713766714420e-02,1.152093670820186350e-01,1.461420433471028457e-01,1.337719220574356271e-01,7.645921515797975132e-02,2.238510235794757830e-02,2.158336699093637082e-02,3.385899108070919428e-02,9.498459024802875794e-02,7.517052198038491617e-02,2.083076510191419345e-02,6.755523183800737907e-02,8.367448701680141321e-02,4.904498698462005785e-02,8.622592684474292279e-02,4.987515651291530433e-02,8.480096498719452702e-02,5.194852583614111702e-02,3.567614527766484883e-02,3.906556071776744882e-02,6.875342919038350542e-02,8.312715063204917029e-03,7.229440848730818436e-02,2.721156799329499734e-02,5.375907840382587732e-02,2.063017959564820980e-02,5.160134402011051086e-02,5.329424895715676597e-02,4.053240497776892937e-02,5.894417602420152363e-02,4.567011536026566870e-02,5.345122097317853149e-02,4.828467520931091495e-02,3.751721071315384376e-02,1.896539570140032879e-03,3.136574574772542368e-02,1.321255793841071349e-02,1.630411281421705397e-02,1.461119642471951988e-02,4.300100680836434382e-03,9.680784600379990518e-04,nan
nan,8.261630370968709586e-03,1.335326502514202346e-02,1.847269494735501172e-02,3.547329201723047054e-02,4.264931725363366177e-02,4.781624460737943921e-02,5.365835725307806919e-02,5.829391967101447275e-02,6.231318283036926808e-02,5.720165030550793811e-02,6.955537606369231740e-02,7.340375540083547701e-02,8.196053874637927728e-02,8.479124511313895773e-02,8.739534726522604768e-02,9.013719153854983512e-02,9.250928383922879528e-02,9.447719524919470646e-02,9.642188454754654914e-02,9.875811857217127454e-02,1.031056725740419344e-01,1.068518850398634673e-01,1.112981910504879379e-01,1.148320670927845399e-01,1.175870875259440174e-01,1.200253106162617323e-01,1.230467006459292911e-01,1.254627256069160979e-01,1.280508929438041732e-01,1.310855374447514321e-01,1.340216211693454340e-01,1.362596640880150423e-01,1.418438405001167524e-01,1.454309203153229535e-01,1.487526868147717451e-01,1.244074975322976839e-01,1.587313737223532972e-01,1.495867998489146256e-01,1.686261491190208239e-01,1.735014070236541028e-01,1.696251751464080137e-01,1.536175759537411756e-01,1.980475996833073460e-01,2.074502825324563982e-01,2.188201966486680305e-01,2.317430446122654975e-01,2.383266702913087176e-01,2.422660057889172713e-01,2.440009099531871284e-01,2.436891843257544266e-01,2.399415596090472558e-01,2.347869160114870457e-01,2.281305149687484768e-01,2.204602575565512146e-01,2.110431736416301662e-01,1.983251815714124899e-01,1.096978500780982912e-01,1.734113238464591034e-01,1.701943729661188898e-01,1.655379084837807213e-01,1.616523110862307933e-01,1.574403951275224756e-01,1.513078288432307683e-01,1.482640688290132458e-01,1.446260352312519482e-01,1.401017961756360342e-01,1.365060662361942123e-01,1.338404520879643289e-01,1.267014336532195362e-01,1.272822858122715506e-01,1.251145278361040780e-01,1.080381966498206170e-01,1.174680364656089659e-01,1.148435795987419322e-01,1.093953836138156221e-01,1.077334686613564685e-01,1.054403876015510139e-01,1.037909216476915475e-01,9.096832786163208673e-02,9.589326885367002729e-02,9.271506246608754442e-02,7.979813036494039225e-02,8.571127017640609025e-02,8.227148145391244283e-02,7.891077736656729180e-02,7.517540346445822363e-02,7.197830262584037353e-02,6.848477860797155814e-02,6.541976754665827787e-02,6.228167982618691007e-02,5.946141655366520007e-02,4.929252021894543756e-02,4.291348049770265377e-02,3.418614547282905480e-02,2.662508876383611750e-02,1.975107257463359911e-02,1.195915266113161887e-02,5.899983980171844868e-03,nan
nan,8.622714016299248482e-03,1.495132371286706299e-02,2.374398140478915092e-02,3.478909822713138755e-02,4.205476698942503533e-02,4.769054034920375273e-02,5.366336180808093520e-02,5.840664752455525244e-02,6.224203274235865641e-02,6.618737884729798682e-02,7.053850212586318391e-02,7.543721592156560352e-02,8.059967859402263068e-02,8.413673959419153137e-02,8.694482182254495428e-02,8.958697727499337349e-02,9.212111008331300144e-02,9.435818601134902950e-02,9.681934526460372892e-02,9.960551986648490119e-02,1.028994123376888586e-01,1.069981676105637575e-01,1.104537990788169027e-01,1.138529951305852078e-01,1.167117451173409481e-01,1.195402512906581366e-01,1.225276198203363587e-01,1.252022092589864244e-01,1.280953089021146518e-01,1.309768250771995990e-01,1.338535714307486635e-01,1.370986180695962786e-01,1.409063854867337318e-01,1.449803177988707725e-01,1.485787847777277348e-01,1.530482655534392000e-01,1.578566574340413420e-01,1.627018909507571554e-01,1.674599268396918250e-01,1.727935979238182929e-01,1.793320895304450768e-01,1.868125009937582071e-01,1.947813040016681541e-01,2.025395161236470953e-01,2.116154342577335201e-01,2.187980412107097261e-01,2.250366949002519101e-01,2.291670807272655763e-01,2.309641672790986866e-01,2.308733599495952360e-01,2.281069647839617520e-01,2.241439442825489403e-01,2.183836499157013888e-01,2.120233663643002753e-01,2.037330957118628771e-01,1.929627006698265146e-01,1.837783563573346657e-01,1.741618081669087104e-01,1.691758664572080018e-01,1.648859500651144172e-01,1.611774492419915106e-01,1.563679272813553456e-01,1.515839342371969600e-01,1.476358120175844946e-01,1.439057033850586476e-01,1.401145094271501468e-01,1.366063743510741724e-01,1.332129868149867780e-01,1.300428210146003793e-01,1.271922654329401270e-01,1.237822150299119767e-01,1.204420223528510497e-01,1.172925399448907641e-01,1.144647367872301535e-01,1.111082970848235735e-01,1.081058553230530711e-01,1.054642241675188274e-01,1.029561408062768246e-01,1.001021173777751488e-01,9.632338622311900633e-02,9.272540415429222915e-02,8.934607065648685065e-02,8.589745945123779258e-02,8.231626084611287641e-02,7.928697095612838308e-02,7.541886078431092599e-02,7.165072590236208627e-02,6.849315566260848198e-02,6.529323404770022432e-02,6.207944224737867861e-02,5.815526434569827374e-02,5.210102355148683861e-02,4.457587222654856712e-02,3.640274089637404731e-02,2.856122819425576873e-02,1.962838940527388693e-02,1.192027572669761282e-02,6.581330595759458078e-03,nan
nan,8.249643052202160209e-03,1.442919862051740207e-02,2.385792281656580471e-02,3.423031787818672095e-02,4.138541547454534231e-02,4.788316847327148129e-02,5.339701093170860779e-02,5.820280947913113873e-02,6.249323059759776672e-02,6.666570828927520509e-02,7.095115433743744149e-02,7.574206093565589992e-02,7.982266032990459337e-02,8.330114942674211875e-02,8.639598282950049224e-02,8.917276967027450152e-02,9.185491147651268784e-02,9.439488860777324464e-02,9.700732973121259373e-02,9.998160214132700840e-02,1.032484719794437428e-01,1.067345273486739049e-01,1.099995225714090336e-01,1.132549311228712718e-01,1.161869222720826322e-01,1.190841553407285952e-01,1.219886898893401406e-01,1.248675647349438145e-01,1.277328475775420802e-01,1.306626033783351293e-01,1.336261788393345029e-01,1.368505495657075799e-01,1.408218930006401581e-01,1.442636557142216169e-01,1.481224168614333481e-01,1.523394145072300976e-01,1.568001487838258934e-01,1.615016826094107794e-01,1.661315380845964362e-01,1.712504883826829194e-01,1.770281224249334873e-01,1.834889376739634315e-01,1.904788728567236855e-01,1.969824305347397941e-01,2.038266802253770327e-01,2.104974062493909504e-01,2.149048541081388375e-01,2.179764259434754936e-01,2.195002167522030478e-01,2.191468783273477217e-01,2.173874721268144183e-01,2.141390532128866209e-01,2.097818909877370852e-01,2.038815023728533793e-01,1.968612529746795181e-01,1.891603974276716560e-01,1.811533997002232332e-01,1.737137091529366295e-01,1.685098839949834282e-01,1.636851251822070141e-01,1.595377179095869291e-01,1.551995421891158022e-01,1.510386812407333579e-01,1.470601646527303352e-01,1.434034471570425351e-01,1.397568914890643943e-01,1.361590212649188558e-01,1.328570782655084104e-01,1.297309013454082116e-01,1.267708223615703067e-01,1.234037979296469384e-01,1.202990811532373000e-01,1.171196624233370870e-01,1.140447001657801662e-01,1.109052934513368865e-01,1.079043872535189880e-01,1.052305118286230717e-01,1.024558844852720002e-01,9.959758764414283760e-02,9.624122253418038175e-02,9.275872182518682396e-02,8.943402650469445270e-02,8.602642319432747542e-02,8.247928003529822472e-02,7.913695445051899258e-02,7.560873518424279793e-02,7.195249216572027762e-02,6.846156124765800932e-02,6.497653162082377143e-02,6.131183366332979001e-02,5.698457545269479396e-02,5.167257228548317177e-02,4.478523249557005842e-02,3.804647850555284427e-02,2.981063275723265862e-02,2.004119802109087869e-02,1.175987308157296768e-02,6.703035998611767479e-03,nan
nan,7.616366460373925895e-03,1.331676791555229909e-02,2.241373145408375595e-02,3.266303837748219668e-02,4.120345590684554304e-02,4.768381532745546991e-02,5.309321199740547198e-02,5.800348173818346137e-02,6.251423956321085218e-02,6.674837650869544503e-02,7.104304036380025555e-02,7.528200765887468893e-02,7.917587131931960731e-02,8.268663144632920625e-02,8.581263201121050455e-02,8.874462468910607194e-02,9.151195289656016696e-02,9.421711873062729725e-02,9.698222109035764538e-02,9.994374633018963949e-02,1.030889044355848827e-01,1.063605728864121247e-01,1.095734067273790857e-01,1.126314438994627243e-01,1.156193015529880519e-01,1.185394541717743055e-01,1.214340534424322576e-01,1.243043138099328287e-01,1.272244918805602032e-01,1.301868589032505186e-01,1.332031582691157179e-01,1.365019820704384546e-01,1.399800266891124134e-01,1.436161401998779508e-01,1.473262079408349523e-01,1.513274760934487650e-01,1.554968508352523315e-01,1.599469225697401353e-01,1.645471670260636732e-01,1.691617719490965677e-01,1.744295325918790440e-01,1.800045724624665111e-01,1.856224786256051584e-01,1.914976647635689977e-01,1.968695472811401448e-01,2.019418882839476015e-01,2.055628757014205665e-01,2.082309425813008708e-01,2.094231421635112667e-01,2.093459834088023386e-01,2.076989240909782874e-01,2.054463724898433763e-01,2.012764294098884910e-01,1.968956360833010177e-01,1.907506463248342110e-01,1.848828866907588075e-01,1.779500929485122451e-01,1.721399246067694677e-01,1.669633317891577318e-01,1.622678665638682960e-01,1.580776982751935789e-01,1.540969177139635826e-01,1.500539912203109061e-01,1.461739715956347219e-01,1.425596878912020471e-01,1.390397411417700069e-01,1.355760780325052650e-01,1.323501448015001192e-01,1.291886007706389006e-01,1.260976502945212463e-01,1.229457687929814413e-01,1.198935334784084761e-01,1.168239092521934086e-01,1.137511613245282827e-01,1.106743240691204222e-01,1.077440076174954464e-01,1.048647225454531484e-01,1.020327745646576745e-01,9.906348341830220616e-02,9.583577151602425126e-02,9.256757213781396931e-02,8.927770905338433538e-02,8.584509731505304830e-02,8.246206682270236510e-02,7.901506687569112564e-02,7.554341485682841695e-02,7.196399438915705715e-02,6.833993073850448685e-02,6.470135529785954465e-02,6.081929434860844363e-02,5.635026192285864932e-02,5.118701513657085422e-02,4.496208821892407059e-02,3.747751859811265102e-02,2.887242403182717701e-02,1.971746322678208374e-02,1.191830264955835716e-02,6.989915425620937123e-03,nan
nan,7.326927734093844312e-03,1.158020424450497549e-02,2.105343188904114718e-02,3.234472879505329024e-02,4.087767536610194263e-02,4.713087940577909835e-02,5.281159773081767206e-02,5.770405794578527259e-02,6.230019708581456539e-02,6.662972737736172490e-02,7.079467364328720369e-02,7.486077109939821839e-02,7.859139009761891004e-02,8.208973091418649004e-02,8.526242287636082162e-02,8.826387691547847580e-02,9.111746019098049265e-02,9.393700639534424690e-02,9.679167613948547189e-02,9.975714807705787779e-02,1.028289323235451747e-01,1.058872679495158342e-01,1.089980020513727083e-01,1.120268310489876407e-01,1.149626537945541982e-01,1.178984070526178374e-01,1.207829092926455822e-01,1.236531078381277460e-01,1.265394594297626907e-01,1.294722712711781354e-01,1.326010996721563029e-01,1.357554839841471628e-01,1.390978578836851998e-01,1.426216616631960921e-01,1.461885241015670189e-01,1.499994391142278893e-01,1.538996519793365547e-01,1.578817642846251368e-01,1.623888653512621794e-01,1.668649002181387953e-01,1.713676131969585348e-01,1.762989628605853287e-01,1.812866554278667053e-01,1.860391881358938737e-01,1.904633833420633637e-01,1.943431996714255483e-01,1.976903040555351709e-01,1.996401377839394642e-01,2.005478582599721782e-01,2.008111981475514951e-01,1.992899104677902933e-01,1.971072412814277586e-01,1.937291787880986993e-01,1.897572445892983517e-01,1.851198977121692735e-01,1.799320908866181845e-01,1.744429196927061443e-01,1.694993152880508447e-01,1.647365234531328326e-01,1.604629768428284531e-01,1.564760479921804004e-01,1.525080603644466404e-01,1.487681009928963349e-01,1.450741674874089226e-01,1.415472684934914183e-01,1.381230999184161479e-01,1.347805046708261123e-01,1.315840965884428337e-01,1.284505421069847830e-01,1.253629510625254295e-01,1.223323250315637989e-01,1.192717572937048720e-01,1.162567256254284920e-01,1.132331334159702857e-01,1.102589264513796491e-01,1.073469288331298788e-01,1.044592249575409526e-01,1.015468117205700349e-01,9.856488639507719751e-02,9.543405616283860693e-02,9.224782070711790016e-02,8.896540236037517313e-02,8.565182158139750257e-02,8.226225787456724337e-02,7.885912142797243951e-02,7.534558418685302628e-02,7.178809442886094350e-02,6.809711999737914911e-02,6.430943959612124561e-02,6.022249785530749133e-02,5.578828281162211827e-02,5.061095586858960910e-02,4.454012980860841409e-02,3.699671764241821426e-02,2.770398339917231473e-02,1.849801649349714500e-02,1.168971025048489917e-02,7.109527451258007558e-03,nan
nan,7.028709231356605053e-03,1.175868439235686937e-02,2.048252510632796869e-02,3.174194577631834352e-02,4.015217399732713688e-02,4.684215377168318706e-02,5.221860657214989765e-02,5.735543887566054572e-02,6.195763049896193392e-02,6.621392717995822075e-02,7.033636934769577076e-02,7.431526978977437414e-02,7.797958773279096978e-02,8.146345199196099174e-02,8.467221984483480623e-02,8.769008652379470248e-02,9.063168951621120017e-02,9.349709881262716071e-02,9.641689245048204460e-02,9.936486352410611733e-02,1.023492246447193776e-01,1.053380228014676595e-01,1.083899672054097485e-01,1.112953373178607874e-01,1.142550582383935198e-01,1.171490948903442242e-01,1.200070833324204944e-01,1.228371781889378012e-01,1.257292764118057848e-01,1.286365356042895869e-01,1.316908204703396423e-01,1.348018560943855804e-01,1.380865174406879503e-01,1.413762876456757245e-01,1.448647508913479265e-01,1.484373817133642359e-01,1.521881058171553058e-01,1.559853001988910359e-01,1.599401214373398217e-01,1.640558251601241246e-01,1.681411097936399979e-01,1.724107700970431700e-01,1.766003337733806078e-01,1.805248500859352734e-01,1.842106904269919798e-01,1.875873631972669042e-01,1.901284574249187953e-01,1.920572190621492870e-01,1.928926677020385283e-01,1.927968198146188528e-01,1.916071762161268288e-01,1.897049027270484578e-01,1.872643701299474828e-01,1.836213379262930934e-01,1.798948723511927528e-01,1.755590737362069109e-01,1.711039553001024449e-01,1.667510787797000515e-01,1.623735867090337903e-01,1.583372067096548708e-01,1.546091870119253031e-01,1.508862060860035326e-01,1.472725708294659597e-01,1.437201705813503372e-01,1.403408953555735361e-01,1.370179692007207350e-01,1.338320019248862014e-01,1.306575972894534476e-01,1.276133303892240112e-01,1.245720895284508356e-01,1.215943574969369778e-01,1.186122801789370046e-01,1.156021633989551545e-01,1.126731595804776886e-01,1.097235602108242863e-01,1.068182494385584574e-01,1.039339297000845264e-01,1.010023079960221670e-01,9.801589986425586487e-02,9.494826927624286372e-02,9.180496467993523591e-02,8.861456725909615251e-02,8.528260763262043853e-02,8.195518879163748993e-02,7.854474674056481642e-02,7.505492301199453986e-02,7.142005305025263262e-02,6.771815804703010255e-02,6.380413469364373813e-02,5.967322674406920491e-02,5.512325906243684126e-02,4.996159781032114694e-02,4.380617873027841530e-02,3.587118986218097716e-02,2.624159518566152385e-02,1.672126029034418440e-02,1.011092676360751501e-02,6.155088690034314809e-03,nan
nan,6.611289419217692906e-03,1.126424661264035024e-02,2.006131886722584481e-02,3.076557182749859592e-02,3.899760412877380927e-02,4.608923594419842007e-02,5.171492029011265368e-02,5.670342716640298930e-02,6.138488814777766367e-02,6.576606114819757987e-02,6.982027658535075454e-02,7.367739041098100850e-02,7.734656472387707593e-02,8.078755886122490626e-02,8.401364551911527645e-02,8.709425192688202699e-02,9.007230358696116657e-02,9.300205866162498947e-02,9.586729536395247053e-02,9.882899766123776075e-02,1.017804591173186446e-01,1.047439478827900949e-01,1.076430872390619076e-01,1.105534566507571231e-01,1.134416083209891790e-01,1.162953293567169089e-01,1.191236385531524028e-01,1.219663217007082856e-01,1.248080698696680257e-01,1.277162027629866470e-01,1.306553530177933242e-01,1.336744616405560193e-01,1.368112947845256111e-01,1.400123306422259573e-01,1.433153759607852240e-01,1.467133642784631542e-01,1.502329944553512098e-01,1.537537701544879898e-01,1.574905639158162285e-01,1.610975737758331694e-01,1.648450590237216240e-01,1.686497775961568746e-01,1.721217860376808573e-01,1.756728451298670279e-01,1.789026182574807999e-01,1.814707837073473995e-01,1.837147672021667844e-01,1.848459498347631846e-01,1.854929254552155349e-01,1.856977218459987533e-01,1.850394896052083571e-01,1.831939320307558738e-01,1.806974561468643325e-01,1.780417676065514376e-01,1.749269644941251478e-01,1.710460586113349835e-01,1.674361303015842184e-01,1.635374133840286071e-01,1.596498994726593679e-01,1.559656745911845999e-01,1.524791578427856786e-01,1.490189627155453223e-01,1.455284055565056467e-01,1.422354225993507637e-01,1.389497190799759974e-01,1.357839150553390717e-01,1.326722438640367541e-01,1.296433164492691859e-01,1.265973310530033036e-01,1.236621037843216170e-01,1.207181155398535238e-01,1.177922004727469940e-01,1.148650654396415755e-01,1.119346982846368133e-01,1.090587364123174197e-01,1.061692108276013624e-01,1.032862613731141965e-01,1.003861632837042550e-01,9.740157775128968631e-02,9.435212052990282761e-02,9.127009728261463450e-02,8.810314619455542062e-02,8.483599513448703000e-02,8.151721682496892996e-02,7.809994475042647544e-02,7.461351987195524726e-02,7.098456041368819691e-02,6.719693951024890977e-02,6.324208563047416243e-02,5.901098787907226723e-02,5.440440580984341745e-02,4.878392414806954208e-02,4.291067094611442090e-02,3.523811110321256601e-02,2.554795914540046453e-02,1.545947704778253759e-02,9.650944107991936416e-03,5.316735768054164923e-03,nan
nan,6.393095796446430189e-03,1.141301920348158916e-02,1.943800676051120335e-02,2.995827421708217170e-02,3.863398406644617117e-02,4.542082503699963053e-02,5.093900190127344935e-02,5.594582532252900114e-02,6.063097198094942464e-02,6.507465879403810660e-02,6.909885267752934046e-02,7.298308471704259559e-02,7.662621870985278361e-02,8.003098866454011473e-02,8.329651504781261651e-02,8.638361862632007449e-02,8.940771779773519501e-02,9.234450537838806428e-02,9.525988754874524511e-02,9.816895222744401184e-02,1.010736612077406948e-01,1.039786612649320346e-01,1.068572397809774976e-01,1.097115590983757938e-01,1.125458439682783390e-01,1.153543832096010913e-01,1.181369475894368803e-01,1.209298520695523405e-01,1.237524687069022078e-01,1.265503580574404152e-01,1.294567255444719900e-01,1.324109715638947804e-01,1.354191182947741268e-01,1.385214939549571922e-01,1.416418960330899646e-01,1.448598193488833674e-01,1.480965230428748225e-01,1.514495986436240060e-01,1.547365651405367970e-01,1.582003740948679793e-01,1.614265509562680945e-01,1.647895597756365293e-01,1.679109564511944153e-01,1.709527620764831057e-01,1.735426801989488899e-01,1.756363851835263667e-01,1.776426302687213188e-01,1.787484256024572948e-01,1.793457298688698187e-01,1.794625305595357601e-01,1.786477325477819622e-01,1.771545547497529738e-01,1.753885619496498571e-01,1.730530695378285355e-01,1.702069823955024153e-01,1.669718632394132374e-01,1.637738932962538030e-01,1.601939416863417120e-01,1.568900739879189876e-01,1.535357365828587672e-01,1.502721418870092140e-01,1.469653106613923177e-01,1.437709939954885940e-01,1.405592928523672902e-01,1.374751549636598069e-01,1.344336424405847275e-01,1.313997094034846380e-01,1.284368632813298883e-01,1.255338557927382637e-01,1.226150165014007476e-01,1.197299780671976649e-01,1.168618641286050808e-01,1.139863048115901945e-01,1.111292392683605190e-01,1.082503790384023723e-01,1.054388640186278980e-01,1.025639164380258289e-01,9.964852736088319896e-02,9.671854960494497000e-02,9.371203034088307349e-02,9.063316478385978481e-02,8.748677270763370595e-02,8.427092019008670942e-02,8.094850457218367989e-02,7.755720460145711093e-02,7.406166476319123171e-02,7.040907025283453524e-02,6.662490851840555117e-02,6.256318074941299989e-02,5.820698381352385625e-02,5.347695405183299638e-02,4.819470296334745635e-02,4.179231382943589257e-02,3.407474902189998323e-02,2.429877059804588443e-02,1.494100029334661378e-02,8.971743729717917074e-03,5.229146218613553096e-03,nan
nan,6.318969080409650961e-03,1.082237787507001406e-02,1.889099126952312191e-02,2.850372583116981065e-02,3.770770935751375369e-02,4.475461429796255552e-02,5.011896905574654559e-02,5.515502229005493640e-02,5.980553017888186329e-02,6.424166954954149689e-02,6.838502211409176745e-02,7.217235759874289502e-02,7.578974425858793496e-02,7.922389719097615302e-02,8.245819003204157838e-02,8.560635394525104025e-02,8.864585976153541158e-02,9.159434957211953776e-02,9.450229653691755161e-02,9.737931863204468685e-02,1.002808765270624125e-01,1.031212749339657508e-01,1.059519610198860901e-01,1.087579991693387593e-01,1.115407277776258449e-01,1.143045058679685311e-01,1.170637863571248327e-01,1.197861011481359539e-01,1.225632030360473967e-01,1.253483962388198814e-01,1.281494179263688582e-01,1.309977429782007152e-01,1.339120375959714504e-01,1.368233429153997149e-01,1.397900298605361802e-01,1.428621387971444334e-01,1.458790199542150112e-01,1.488936272985052212e-01,1.519941660259211957e-01,1.550910204983326768e-01,1.581156961747926804e-01,1.611080273161842880e-01,1.639578950155414772e-01,1.663500886824158254e-01,1.686540087370094199e-01,1.705010842810436023e-01,1.720307241841749213e-01,1.730795393434688134e-01,1.735696696344675716e-01,1.734951774194723462e-01,1.730256788051550698e-01,1.717473460018592857e-01,1.701044900498850099e-01,1.681604049022925595e-01,1.657548157076740303e-01,1.630170764489438651e-01,1.601364475678072885e-01,1.571047214408673176e-01,1.540916796157388857e-01,1.510086177337079671e-01,1.479274630865096696e-01,1.448368114573942433e-01,1.418196571822858687e-01,1.387727374236543409e-01,1.358422511732982341e-01,1.329010329836441406e-01,1.300265885815684030e-01,1.271448302461595514e-01,1.242958824779082927e-01,1.214751617561080493e-01,1.186491732098139962e-01,1.158126154828471865e-01,1.130172451861705257e-01,1.102211175919187020e-01,1.074104504699495422e-01,1.045854676516377868e-01,1.017147915270418396e-01,9.884678142207839469e-02,9.592507805265011733e-02,9.293690880771787732e-02,8.989526385439292056e-02,8.678513521568102795e-02,8.356977853931943367e-02,8.026268489810362006e-02,7.686791557046104839e-02,7.337538105214698458e-02,6.972809568890632470e-02,6.584377517494380272e-02,6.177415744377166146e-02,5.739944096490602610e-02,5.258046475273253639e-02,4.687817960502228820e-02,4.048840887055912829e-02,3.241020700150532702e-02,2.260668315990289889e-02,1.344519288232315368e-02,8.334771493321985192e-03,4.731142019389236557e-03,nan
nan,5.949191182449448285e-03,1.066482167697572342e-02,1.757271905460990741e-02,2.724379392356763435e-02,3.598722775043809025e-02,4.360136215179073738e-02,4.927537798942262237e-02,5.428256097783130951e-02,5.884173925108319991e-02,6.327635316768162599e-02,6.748959960548416015e-02,7.132379439740517413e-02,7.489272618571227169e-02,7.831047319501047155e-02,8.160566232359156569e-02,8.472894082628867896e-02,8.777633091817595157e-02,9.073898302225759382e-02,9.362303665141631648e-02,9.651864662133922967e-02,9.934579942871352154e-02,1.021806244057143903e-01,1.049711368162692948e-01,1.077150018707116880e-01,1.104646564508054707e-01,1.131841621500963568e-01,1.158868986601611084e-01,1.185865053786119699e-01,1.212724036987666842e-01,1.239796502339728240e-01,1.267169738776357524e-01,1.294921559632355723e-01,1.322476677221796626e-01,1.350602101861887450e-01,1.378716367759892647e-01,1.407126411299715607e-01,1.435777469591462963e-01,1.464266248387679215e-01,1.492559095669887259e-01,1.520976881165659322e-01,1.547883328813007553e-01,1.573979507041105841e-01,1.598587002826586667e-01,1.620220926236371206e-01,1.641243068197725807e-01,1.657132349900529711e-01,1.670250741098600611e-01,1.677918279021755610e-01,1.680872363216861232e-01,1.681926188125496269e-01,1.677191242920479386e-01,1.666130409675143920e-01,1.652733340618307567e-01,1.635514112193793834e-01,1.614746016486190983e-01,1.590737424753663476e-01,1.565773960963314504e-01,1.538813549356105870e-01,1.510717899989161006e-01,1.483137012303085700e-01,1.454130221830800263e-01,1.426290042469498254e-01,1.397651952903258554e-01,1.369488855098308644e-01,1.340979552547790221e-01,1.312876407297951797e-01,1.285006634402224568e-01,1.257344732583035585e-01,1.229689947911570130e-01,1.202125584368085726e-01,1.174551073777839322e-01,1.146944221486779492e-01,1.119584803393347539e-01,1.091887711483787160e-01,1.064182679994589154e-01,1.035995570387931858e-01,1.008013676518438734e-01,9.795319297032237249e-02,9.504609671068103838e-02,9.208847116969426372e-02,8.907500526045922240e-02,8.596747759134555633e-02,8.278171547085570736e-02,7.949701427624344952e-02,7.611674486305615439e-02,7.257045052931936080e-02,6.894313213859987188e-02,6.504897259673331211e-02,6.080845410263739648e-02,5.633688865051707934e-02,5.139945353014222645e-02,4.573508272983153877e-02,3.898779453331741029e-02,3.040829364393499851e-02,2.066966618552333601e-02,1.361764644870024077e-02,7.768887071240319561e-03,4.372520646098849301e-03,nan
nan,5.442980642586869172e-03,9.111927756861827252e-03,1.654595608076897539e-02,2.520858469580958272e-02,3.410036713894128851e-02,4.184467598824796047e-02,4.767528759718918374e-02,5.298396375579417922e-02,5.783613379600929805e-02,6.235033022014094262e-02,6.640554268876455724e-02,7.032004278415973642e-02,7.391343810674474990e-02,7.733314803006909044e-02,8.061624552978886860e-02,8.379148559615609559e-02,8.681943930036192802e-02,8.978007894469561267e-02,9.269334126082609537e-02,9.553607424964190298e-02,9.835472757210406147e-02,1.011455538689187972e-01,1.039047814033533385e-01,1.066019680282959126e-01,1.093063570364089243e-01,1.119751509337321704e-01,1.146312513526025756e-01,1.172802238275716946e-01,1.199055033625120031e-01,1.225225774840005000e-01,1.251741430195001392e-01,1.278388837503444952e-01,1.304438756787359432e-01,1.331942069317696431e-01,1.358536528697442680e-01,1.385544748330203024e-01,1.412121458769374782e-01,1.438934984059530853e-01,1.464500090289599377e-01,1.489742732784823664e-01,1.514964917859011051e-01,1.538561143768047423e-01,1.559970876161448361e-01,1.579498326645828454e-01,1.597469948474644075e-01,1.610657395772380762e-01,1.622267148367662060e-01,1.628543112315094243e-01,1.633373355365220769e-01,1.632622440574766354e-01,1.627005896353546088e-01,1.619139642646932331e-01,1.607855693427616139e-01,1.592377638342302171e-01,1.573469862860780444e-01,1.553437772166431641e-01,1.530538485035735641e-01,1.507287599875490047e-01,1.481673269571376073e-01,1.456125285224091903e-01,1.429496772125554149e-01,1.403265266736132555e-01,1.376064374467996509e-01,1.348457120051899105e-01,1.322457037195815532e-01,1.295731696395711341e-01,1.268903557185999398e-01,1.242159096228558079e-01,1.214846516749421151e-01,1.188392090970342707e-01,1.161452562791044363e-01,1.134636282605643864e-01,1.107732945381490752e-01,1.080637892741551365e-01,1.053296305114860554e-01,1.025621074196849114e-01,9.977975373740727294e-02,9.695684277222824110e-02,9.408854692623981608e-02,9.114442969885594437e-02,8.814280865070969750e-02,8.505739733644487877e-02,8.188285371204792606e-02,7.861574000923896022e-02,7.522231849059876629e-02,7.169337759384293574e-02,6.800174063063896268e-02,6.409087855020860480e-02,5.979488512781729048e-02,5.516363789738269741e-02,5.005507206574279222e-02,4.437075507940754782e-02,3.728793337430617860e-02,2.823333375891257102e-02,1.859258068117554744e-02,1.131189181681814711e-02,7.457233091864528748e-03,4.156394666452378414e-03,nan
nan,4.735092306370508597e-03,8.419976654799498500e-03,1.428626798641928833e-02,2.281816990558569250e-02,3.196023664247686635e-02,3.952454938222416808e-02,4.632995047584595460e-02,5.177850684635407902e-02,5.671722799062067777e-02,6.116356002621048393e-02,6.534217977652230502e-02,6.922036388093386061e-02,7.283601067062590861e-02,7.629701178783643289e-02,7.957865511496496624e-02,8.272390900009171655e-02,8.578091745721146133e-02,8.873669456763416674e-02,9.164147954689097486e-02,9.446947279168071976e-02,9.725862679159277824e-02,1.000070275585178137e-01,1.027128191898543930e-01,1.053839938129587650e-01,1.080458057495378710e-01,1.106637243520572911e-01,1.132609813083484129e-01,1.158636289543686915e-01,1.184225189801240974e-01,1.209840395122700335e-01,1.235140494816707735e-01,1.261081892266010251e-01,1.286563686324271316e-01,1.312095185193180580e-01,1.337818147127761148e-01,1.363208336524548425e-01,1.387836696143592841e-01,1.412633403030318369e-01,1.436956706405157491e-01,1.459263055559474054e-01,1.482906739131353568e-01,1.503234936866777172e-01,1.522580572423101741e-01,1.540533347381798923e-01,1.554920831822689531e-01,1.567778193910658868e-01,1.577319672421276242e-01,1.583835801918851982e-01,1.587091495576792854e-01,1.586859470633331382e-01,1.582282911088510602e-01,1.574530003760387653e-01,1.564980088464454078e-01,1.551125795221738879e-01,1.535040724625325315e-01,1.516871336682697191e-01,1.497015113035458644e-01,1.475024317012915698e-01,1.452222473948955872e-01,1.428667608178135207e-01,1.403753015389438696e-01,1.379167188742135008e-01,1.353552357522619931e-01,1.328798045308085540e-01,1.303291929227552992e-01,1.277534521134952028e-01,1.251946775407249968e-01,1.225934526942041025e-01,1.199894094647655923e-01,1.173852959122441975e-01,1.147655225750592034e-01,1.121561039347282185e-01,1.094974183085567071e-01,1.068349802076385135e-01,1.041437935183722463e-01,1.014288666528204291e-01,9.866180147424105651e-02,9.587655199912377413e-02,9.301434335473776627e-02,9.010910776496990071e-02,8.711379058935671271e-02,8.406721755121458750e-02,8.088576370060787668e-02,7.760237490113562620e-02,7.422601639184694955e-02,7.071351123514287018e-02,6.698080541811939070e-02,6.290790171440471812e-02,5.865504127558851533e-02,5.393169515103427014e-02,4.855792799062442350e-02,4.237903233759258981e-02,3.496724968101663084e-02,2.581433783857523673e-02,1.653933718276839535e-02,1.020850169106687563e-02,6.643179965110413386e-03,3.667706915662051134e-03,nan
nan,4.506726782285070884e-03,8.225527818228127452e-03,1.305453122673895690e-02,2.073070984716749929e-02,2.943149181033900136e-02,3.753724010116442356e-02,4.451580362703718569e-02,5.030137614426271470e-02,5.533101405164307651e-02,5.994794808648352957e-02,6.408222492447557261e-02,6.801202985675255941e-02,7.166698689712833192e-02,7.514029655583009948e-02,7.845090598837695106e-02,8.156936487991303664e-02,8.464869936543545359e-02,8.759974341990378610e-02,9.046783077025197239e-02,9.329846491236271078e-02,9.606058834165120963e-02,9.878250992810619358e-02,1.014503468586812895e-01,1.040931451040492950e-01,1.066938485924579516e-01,1.092807693047626871e-01,1.118245135547019237e-01,1.143673738794296624e-01,1.168827734198155943e-01,1.193610905178101034e-01,1.218457016241121238e-01,1.242637735022171785e-01,1.267653058943839506e-01,1.291895115364032898e-01,1.316223072586236165e-01,1.340028701138878398e-01,1.363040964106088382e-01,1.386772999939345774e-01,1.408633574718798354e-01,1.430037525234039153e-01,1.450234376168446637e-01,1.469355984273800209e-01,1.487458828608502481e-01,1.502921353129570425e-01,1.516346617843234712e-01,1.526768847198731738e-01,1.535138029392152659e-01,1.540718471257845890e-01,1.543428354687230997e-01,1.543316276780208607e-01,1.540432402916636079e-01,1.533250125095768357e-01,1.523931601701506988e-01,1.512494942050296165e-01,1.497664808328438846e-01,1.481475199594044501e-01,1.463289287526887972e-01,1.443796184512896874e-01,1.422561934104363823e-01,1.401328307041111998e-01,1.378487906621910786e-01,1.355316345658739152e-01,1.331652821135786424e-01,1.307437699177285140e-01,1.283004184822985894e-01,1.258611669302977798e-01,1.233741260974096088e-01,1.208989763900700509e-01,1.183631607404736497e-01,1.158578948352117222e-01,1.133108606925116446e-01,1.107340411114409728e-01,1.081455046250123231e-01,1.055364957761047578e-01,1.028840653623754736e-01,1.001960259620225530e-01,9.749061553945213843e-02,9.468519268422367907e-02,9.186751324942724062e-02,8.897999001181787493e-02,8.600432592954596056e-02,8.294774127238892236e-02,7.980051951280667244e-02,7.652338803204364326e-02,7.312357851221625016e-02,6.953358558418938629e-02,6.576875983198135489e-02,6.161042686897838516e-02,5.722421215932907423e-02,5.236060153961277081e-02,4.684201671639567216e-02,3.995130002004577963e-02,3.237339733279956389e-02,2.337901706386780187e-02,1.487362848230341580e-02,9.839613154733794012e-03,6.111414492714867946e-03,3.377845862129932528e-03,nan
nan,4.145549989049200287e-03,7.409043522794077699e-03,1.213235656251201826e-02,1.844831900713343395e-02,2.656265498794356528e-02,3.518288574316413841e-02,4.250526302460801154e-02,4.851930177983555803e-02,5.385548102143151994e-02,5.840291321425290783e-02,6.276599105676669565e-02,6.670527068167153573e-02,7.037547900096551012e-02,7.386073772259954540e-02,7.719670449692292435e-02,8.034409269215593563e-02,8.339777403080622653e-02,8.634640866510621959e-02,8.924329054879487355e-02,9.204925513974160367e-02,9.479215324058351544e-02,9.747487774049454212e-02,1.001308387459159399e-01,1.027328527184128149e-01,1.053032646928253047e-01,1.078135724199645318e-01,1.103217776789145871e-01,1.127890739483524141e-01,1.152373062421991057e-01,1.176308729558474403e-01,1.200539462437191923e-01,1.224112475266168482e-01,1.247521242466527180e-01,1.270776844351951818e-01,1.293855838909188927e-01,1.316420222247033922e-01,1.338409484800843485e-01,1.360026333230095474e-01,1.380765764029320553e-01,1.400701199986741641e-01,1.419350069243060231e-01,1.436738162651449713e-01,1.452624019107461029e-01,1.467359682115296216e-01,1.478861976430640712e-01,1.488078009867402907e-01,1.496079859217890051e-01,1.501137209029547170e-01,1.503011155773140151e-01,1.503013687060768266e-01,1.499816664672499189e-01,1.493178093428756403e-01,1.485864229800335223e-01,1.474937784965785759e-01,1.461244486148887689e-01,1.447165022292696834e-01,1.430009215982403770e-01,1.413009364483400199e-01,1.393664831711171614e-01,1.373534028848553690e-01,1.352349876230148351e-01,1.331034944207039050e-01,1.308659203455602438e-01,1.285590131115886825e-01,1.262818494144716808e-01,1.239120051627006502e-01,1.215281482270324093e-01,1.190922053347693299e-01,1.166897673458327372e-01,1.142324458005705978e-01,1.117467531109749695e-01,1.092481381123118350e-01,1.066956617433155730e-01,1.041485300910327955e-01,1.015458006558711684e-01,9.890066245285822344e-02,9.619634384271186223e-02,9.346127069866262682e-02,9.062004127660208685e-02,8.776470940720632052e-02,8.477573144865514776e-02,8.173971587733286359e-02,7.855948912908658488e-02,7.532057699884064927e-02,7.194438534567375310e-02,6.835406324931916910e-02,6.448323193460199498e-02,6.036593428776648035e-02,5.584703466365950608e-02,5.077727655802453943e-02,4.499577435202845033e-02,3.804896101766523653e-02,2.967886136435173711e-02,2.022805997234370171e-02,1.292470208862133221e-02,8.225283281018281462e-03,5.265113403486157764e-03,3.044452219180695304e-03,nan
nan,3.498361643920046369e-03,6.471305791335766992e-03,1.022721521444237489e-02,1.542368248950092349e-02,2.378587260415997856e-02,3.256977010239046899e-02,4.034886662365259891e-02,4.659376312331554859e-02,5.205682475679571097e-02,5.677647557118473132e-02,6.125649634269694777e-02,6.527560835285685370e-02,6.895549937420783482e-02,7.249925883274307981e-02,7.581657945398941056e-02,7.900289439330904218e-02,8.206841302375039726e-02,8.503688459498687235e-02,8.791818446051020974e-02,9.070519658954243059e-02,9.342810763872128055e-02,9.610761536518433457e-02,9.869303909188423263e-02,1.012618080428760864e-01,1.038140539496036630e-01,1.062887705445700465e-01,1.087337468587714767e-01,1.111405989933577088e-01,1.135188143871777577e-01,1.158737456935197696e-01,1.181985346173693302e-01,1.204870320640067521e-01,1.227410463942834734e-01,1.249631834757439219e-01,1.271497152460012992e-01,1.292933277859267815e-01,1.313455389154367936e-01,1.333644800618722648e-01,1.353120956097199901e-01,1.371345332379604320e-01,1.388365892140101532e-01,1.404771935866507004e-01,1.418943241899837115e-01,1.432098986606878954e-01,1.443045153215210541e-01,1.451942338243450148e-01,1.458353014115592317e-01,1.462475538124982655e-01,1.465113168377398523e-01,1.464187706694769497e-01,1.461622389211726381e-01,1.456286835903268240e-01,1.448808239600400394e-01,1.439099213267036048e-01,1.427953568777872995e-01,1.413803754822584025e-01,1.399008250769723238e-01,1.383332652188480338e-01,1.365012871288204255e-01,1.346473417631535163e-01,1.326411389143754005e-01,1.306279495841957405e-01,1.285126154676220489e-01,1.263781558173529274e-01,1.241705733960650759e-01,1.219177226080726678e-01,1.196199337221355297e-01,1.172874730345413036e-01,1.149399942528519097e-01,1.125493064390524767e-01,1.101261795420264977e-01,1.076927428910003093e-01,1.052066764353653816e-01,1.026773358173981021e-01,1.001111064552374641e-01,9.749810207990283750e-02,9.482746050877084720e-02,9.210424305673781120e-02,8.929599757156454765e-02,8.644688629609148522e-02,8.347846147696993957e-02,8.044495678295168761e-02,7.729219490476314791e-02,7.402026919717152875e-02,7.059397044052273529e-02,6.693780455169089094e-02,6.306334149397641031e-02,5.886131319008561236e-02,5.419952501259435451e-02,4.906075274053661728e-02,4.271342389333180473e-02,3.567534022830201601e-02,2.671314127906585650e-02,1.742846884655285117e-02,1.123277309583067991e-02,7.070994516336796820e-03,4.253564280598504110e-03,2.384542336413620397e-03,nan
nan,2.768037181170800252e-03,5.128824785839241479e-03,8.161917004444362717e-03,1.284695033554714150e-02,2.092090267506220569e-02,3.000578951874080524e-02,3.808901896107889234e-02,4.442431269360452850e-02,5.020862828967545544e-02,5.514596946371488201e-02,5.957523848884303808e-02,6.367645238117491946e-02,6.748075492064939396e-02,7.103160127545302127e-02,7.438678837209147798e-02,7.758597745778725296e-02,8.064611962782913812e-02,8.362031573085242087e-02,8.649778930194632065e-02,8.926691344077455903e-02,9.197771963818883456e-02,9.461198094886416610e-02,9.719666586001417252e-02,9.974593297579002760e-02,1.022312845125912528e-01,1.046663964894055110e-01,1.070572251703700989e-01,1.094270055703979450e-01,1.117440250211159947e-01,1.140401071510878800e-01,1.162883948073222262e-01,1.184822693410611805e-01,1.206326741175625661e-01,1.227836113042012067e-01,1.248195762744438442e-01,1.268731832137900417e-01,1.288379632982640799e-01,1.307322840864550972e-01,1.325461347058948802e-01,1.342758542377830155e-01,1.358437861402989055e-01,1.372949944383264342e-01,1.386287786135635969e-01,1.398349404468792190e-01,1.407888340442252639e-01,1.416105471467269117e-01,1.422685322673517827e-01,1.426303080467721252e-01,1.428037535559557591e-01,1.427540144022848567e-01,1.425489048157971839e-01,1.420418675652574403e-01,1.413898569776079750e-01,1.405147036313278142e-01,1.394133547541968610e-01,1.381621872744408785e-01,1.368151238150190907e-01,1.353061871806093275e-01,1.336647760582457545e-01,1.318829766025846340e-01,1.300644185449350565e-01,1.281488025548024878e-01,1.261577253717013347e-01,1.241209484246821732e-01,1.219786401759272720e-01,1.198363830761628168e-01,1.176017410258592549e-01,1.153905812863556396e-01,1.131064666595754664e-01,1.107885175095938007e-01,1.084292273808031282e-01,1.060354447901630248e-01,1.036103740841631815e-01,1.011289620680701218e-01,9.858872010428330890e-02,9.602283757291847632e-02,9.336294079923185274e-02,9.064803607508456484e-02,8.789936742772239131e-02,8.504095764016759984e-02,8.210985922748306742e-02,7.904946934609807796e-02,7.587816221567152131e-02,7.259403687604015776e-02,6.920208625634870214e-02,6.550091581742947811e-02,6.150660490872612157e-02,5.721080724859230887e-02,5.250572882051730145e-02,4.693044682364837239e-02,4.061076634142914143e-02,3.274935491137042493e-02,2.394241032651630088e-02,1.572654096014154679e-02,9.715193667386393117e-03,6.172858850014346921e-03,3.621391756064460885e-03,1.775674571668189872e-03,nan
nan,1.840039243756585140e-03,3.925670782512151458e-03,6.688048775549299517e-03,1.098026208469993908e-02,1.726088174791826080e-02,2.666731198482515108e-02,3.513944710972603802e-02,4.217638535808607841e-02,4.806990211754774700e-02,5.317262355403273855e-02,5.780650143703029709e-02,6.201553383976096678e-02,6.579886790268553443e-02,6.943469022372519839e-02,7.281173280111181978e-02,7.604857402052782323e-02,7.910793668907525888e-02,8.209215393522985293e-02,8.499055056327915747e-02,8.775653763106883165e-02,9.043563304122773094e-02,9.304871272673861937e-02,9.560972902143197172e-02,9.810311551508243966e-02,1.005732750803379344e-01,1.029720337606284397e-01,1.053178225836410992e-01,1.076354343555358528e-01,1.098858505520734219e-01,1.121179907503815631e-01,1.142997145131032233e-01,1.164275332771859683e-01,1.185127844848266887e-01,1.205596051176286709e-01,1.225224945772448171e-01,1.244456001734569883e-01,1.263017979317108685e-01,1.281006521790518105e-01,1.297867545048866644e-01,1.313788598330927759e-01,1.329066309216434261e-01,1.342185143410640491e-01,1.354630225898088014e-01,1.365011694113717200e-01,1.374057457735689269e-01,1.381846204155822710e-01,1.387506073712076460e-01,1.391030299925435365e-01,1.392840846378788633e-01,1.392409675482612352e-01,1.390238082494663074e-01,1.385808625066762279e-01,1.379717633460628701e-01,1.371633720231055231e-01,1.362098054990788232e-01,1.350540608772217155e-01,1.337818590643095606e-01,1.323951499031634782e-01,1.308398897779564918e-01,1.292064452823792342e-01,1.274537842834060353e-01,1.256703268110766769e-01,1.237754467638509104e-01,1.218125639199067467e-01,1.197978227678925256e-01,1.176790395775885179e-01,1.156084246268932469e-01,1.134466598061845410e-01,1.112133142942971081e-01,1.089704253514250099e-01,1.066559109316150278e-01,1.043234644110615367e-01,1.019191231367095607e-01,9.947558505559774000e-02,9.700642919325172531e-02,9.444866678216019829e-02,9.183480006765230852e-02,8.914685509848049860e-02,8.638756210663253721e-02,8.355000903089482289e-02,8.058718484850657671e-02,7.753159192707521907e-02,7.437107554945301957e-02,7.113376861542816676e-02,6.760347311788278413e-02,6.385953498354499103e-02,5.981343570194310594e-02,5.538622589876021629e-02,5.059981535045945944e-02,4.496516536059096819e-02,3.805273427994132485e-02,3.020719704717480039e-02,2.161034477145436922e-02,1.399034500038234471e-02,8.784182415823082318e-03,5.305267566388098543e-03,3.223666172302375958e-03,1.549126950795123902e-03,nan
nan,1.337193637321009961e-03,2.900019264254896818e-03,5.179486398299209225e-03,8.877650869699400121e-03,1.396583634756129108e-02,2.303295696426086239e-02,3.201305910407463429e-02,3.948128092079632168e-02,4.560799333084337298e-02,5.120114186137778717e-02,5.589244337851252686e-02,6.007670004333755254e-02,6.406305401888884310e-02,6.770525838639777916e-02,7.116165820363011540e-02,7.441458331207689847e-02,7.749615366604165057e-02,8.048899181945960712e-02,8.337031953748344493e-02,8.614745362534366457e-02,8.882396459052788185e-02,9.142208914307833889e-02,9.395606353411864453e-02,9.644054702018017844e-02,9.885613530507295077e-02,1.012172602647985892e-01,1.035284840827079833e-01,1.057877506884176838e-01,1.080015083631599426e-01,1.101623948185785490e-01,1.122661610481290595e-01,1.143205670768057958e-01,1.163514615747416048e-01,1.182900194937082927e-01,1.201840031309570067e-01,1.220320096421904366e-01,1.238058394705298104e-01,1.254756562329316372e-01,1.270627455178148790e-01,1.285597386442821344e-01,1.299599621369664504e-01,1.312068668589279896e-01,1.323358097798841837e-01,1.333297925154579566e-01,1.341921650560037038e-01,1.348654163901960579e-01,1.353398984297680407e-01,1.357246404661810735e-01,1.358382025493104772e-01,1.358233905850638745e-01,1.356031114885082323e-01,1.351986981236273644e-01,1.346436168545730450e-01,1.339252585306833221e-01,1.330183472769117248e-01,1.319782805351674138e-01,1.308038129015896001e-01,1.294752121018653557e-01,1.280680024009789586e-01,1.264989173811629786e-01,1.248981818671937027e-01,1.231715114791593485e-01,1.213756042419583125e-01,1.194994395357464601e-01,1.175675666882719100e-01,1.155735022961256742e-01,1.135412296326632348e-01,1.114181971707524782e-01,1.092773113481949193e-01,1.070711808574359852e-01,1.048299502593125210e-01,1.025378174166109158e-01,1.001757645782789391e-01,9.779753171652658117e-02,9.533187729942800559e-02,9.280031296880647540e-02,9.020704434183313136e-02,8.754016005702315584e-02,8.480530363593256904e-02,8.197296144880600322e-02,7.899400407610775166e-02,7.593853014898120646e-02,7.275114769490459432e-02,6.940580253628184093e-02,6.587463464625323284e-02,6.208089216919891740e-02,5.793672378940541157e-02,5.347157806132982888e-02,4.837906892578425905e-02,4.248188718768010352e-02,3.543092311662091737e-02,2.712381947057708118e-02,1.799218580776563645e-02,1.131833928808497966e-02,7.092010230904068589e-03,4.682869566561489658e-03,2.784605244533318834e-03,1.345081109788209264e-03,nan
nan,8.616548074356559887e-04,1.892647774302776099e-03,4.149459009874340368e-03,6.863069065264317675e-03,1.198326450354769701e-02,1.902811519883662594e-02,2.809729051681591344e-02,3.635679776952616127e-02,4.315108015509522277e-02,4.882095369880707497e-02,5.376478114817361681e-02,5.806126445354864440e-02,6.211418741358261386e-02,6.579428609860575594e-02,6.932710272031394894e-02,7.263302085997970503e-02,7.576064732617474040e-02,7.878698538513748129e-02,8.167336743506048435e-02,8.443915163677988278e-02,8.711889443861300930e-02,8.969733663831082338e-02,9.222458581364607888e-02,9.465655682189649811e-02,9.705705029469702261e-02,9.939262591821365622e-02,1.016584308698124245e-01,1.038772943641620150e-01,1.060414315837561322e-01,1.081316291309592503e-01,1.101925190463050042e-01,1.121851544498960462e-01,1.141291940380316366e-01,1.160179650082563130e-01,1.178500827637944531e-01,1.195714903805843721e-01,1.212581649760631208e-01,1.228412448110125510e-01,1.243570326970862144e-01,1.257732939685174967e-01,1.270516422402708789e-01,1.282569594607538832e-01,1.293108641096915035e-01,1.302489023324255313e-01,1.310273551257110092e-01,1.316782533493217888e-01,1.321084999270588367e-01,1.324374465279894719e-01,1.325428324837616412e-01,1.325401953884562944e-01,1.323363728088239322e-01,1.319898000688629613e-01,1.314632064535821432e-01,1.307714732947765912e-01,1.299189656608623344e-01,1.289811488992016475e-01,1.278582571612340291e-01,1.266108522572106931e-01,1.252791938511649827e-01,1.238237690469002200e-01,1.223038465786832202e-01,1.206807782299313819e-01,1.189453962705411261e-01,1.171474007271723905e-01,1.152976338279357998e-01,1.133643297787743365e-01,1.114111482804409359e-01,1.093679088692332269e-01,1.072770459628955841e-01,1.051270490204154334e-01,1.029400133499091541e-01,1.006902741029949977e-01,9.838352982073142461e-02,9.603257395209796599e-02,9.356907154678756333e-02,9.108349006804303261e-02,8.849716826265638381e-02,8.585769243881698209e-02,8.313590190819390713e-02,8.026759703044747396e-02,7.734517696005575871e-02,7.423476851553864608e-02,7.102179955756998675e-02,6.762306442675422580e-02,6.400891595472682494e-02,6.019000698298387908e-02,5.594472208229468030e-02,5.109008054998533804e-02,4.586397198869502506e-02,3.952861805687311186e-02,3.252007570827007699e-02,2.365561430717523853e-02,1.513307110982405231e-02,9.604505087858008355e-03,6.132731486598920652e-03,3.801545328954758756e-03,1.924353416740694428e-03,8.110718931155195969e-04,nan
nan,6.070823459189903914e-04,1.500647108044214336e-03,3.263231390372499201e-03,5.624213861260020202e-03,1.020772726219853696e-02,1.597926684799361521e-02,2.357809960989302317e-02,3.249670591562497241e-02,3.991010095363609067e-02,4.615983136811704912e-02,5.132191938227993050e-02,5.584565688783289794e-02,6.006764404548432801e-02,6.386017677729469155e-02,6.741411850628441227e-02,7.077249022102216625e-02,7.394624124339328752e-02,7.696767984772436011e-02,7.987427453037063141e-02,8.266066897578276673e-02,8.531271390124124665e-02,8.791305234773735822e-02,9.040116316965250698e-02,9.283210109497699869e-02,9.518700987858325080e-02,9.749557387940425979e-02,9.970909732168950490e-02,1.018975696584407398e-01,1.039995418851539094e-01,1.060646498214541655e-01,1.080608626897066604e-01,1.100096447090204571e-01,1.118911466307305896e-01,1.136909172205201046e-01,1.154451771673856847e-01,1.171149438481343952e-01,1.187378103406245000e-01,1.202244598373323620e-01,1.216784370969965501e-01,1.229902723213236460e-01,1.242198415593817606e-01,1.253278754089778013e-01,1.263387749059307341e-01,1.271968445727113539e-01,1.279439641671163141e-01,1.285081941823411344e-01,1.289523960825561255e-01,1.292131638240324454e-01,1.293690873602900693e-01,1.293273392931450216e-01,1.291204792225116860e-01,1.288331715598775851e-01,1.283516904908328371e-01,1.276672988844765877e-01,1.268856521295889939e-01,1.259859818088411021e-01,1.249533840782761362e-01,1.238090751703079251e-01,1.225433744522118062e-01,1.211844540207415444e-01,1.197156587760706964e-01,1.181481839992823829e-01,1.165061134956389549e-01,1.147864860010880950e-01,1.130021119085318354e-01,1.111376516600102865e-01,1.092247112494568739e-01,1.072588671799844101e-01,1.052238981674318841e-01,1.031392177100082103e-01,1.009792911479750199e-01,9.876587848430090633e-02,9.650980076732695867e-02,9.416064753106601071e-02,9.174511818461020263e-02,8.927835627834171395e-02,8.671194052771916128e-02,8.405154814077228642e-02,8.133468940889598819e-02,7.846751973496257637e-02,7.554484707428227308e-02,7.243685969324784035e-02,6.917562981436353731e-02,6.574679768030065874e-02,6.203369920017705319e-02,5.806492767568353225e-02,5.365886080267860681e-02,4.882738658251514069e-02,4.321757029922754234e-02,3.657845827253701498e-02,2.864407355602796579e-02,1.956019998763084203e-02,1.309571799607078812e-02,8.430145424861618109e-03,5.542216364540507138e-03,2.943395985140973264e-03,1.243357109790352213e-03,2.990676392829466493e-04,nan
nan,2.729602097323644396e-04,9.870992164203995761e-04,2.436256549481871821e-03,4.757756478037327742e-03,7.419554118161322820e-03,1.172819851931239735e-02,1.930405437706410321e-02,2.775672996845784946e-02,3.633435742941591023e-02,4.307756516249513362e-02,4.854272439901306802e-02,5.350353499770834492e-02,5.782060929145885209e-02,6.171040368583678715e-02,6.537409000241459212e-02,6.876630134997133159e-02,7.197963267179073588e-02,7.502970741684264477e-02,7.796039466494718295e-02,8.075042150068396929e-02,8.343451733858665842e-02,8.599905260243570493e-02,8.851053473671557925e-02,9.092352189291187659e-02,9.324888531819293391e-02,9.551734989380651630e-02,9.772792224033488573e-02,9.984715017083573008e-02,1.019343912063796487e-01,1.039610871268244197e-01,1.058955425803580763e-01,1.077836549226734303e-01,1.095985023384290630e-01,1.113512804492325925e-01,1.130467607594598939e-01,1.146501333187209398e-01,1.161441015214906558e-01,1.176253622201259286e-01,1.189461285239918620e-01,1.202413899082331872e-01,1.213982762525579462e-01,1.224501455703582986e-01,1.234058377532763207e-01,1.241802865291324331e-01,1.248837542871251982e-01,1.254288442367773315e-01,1.258421513344625819e-01,1.261002925085576987e-01,1.262050974041542539e-01,1.261869065138304657e-01,1.260250824006728387e-01,1.257308520344150304e-01,1.252720829643959866e-01,1.246473626991334571e-01,1.239141729550361365e-01,1.230854746190582771e-01,1.220813137874337956e-01,1.210120124111947609e-01,1.198137135544176390e-01,1.185015516103268274e-01,1.170797160706685686e-01,1.156244998619685160e-01,1.140472717070105113e-01,1.123904807553822438e-01,1.106932549581010200e-01,1.088946528139688730e-01,1.070458255671861564e-01,1.050995922764044882e-01,1.031071932758381021e-01,1.010663820644285560e-01,9.895048179746970818e-02,9.677294557608916159e-02,9.453258277076048710e-02,9.221948628487201816e-02,8.984674653151002166e-02,8.738982416081247928e-02,8.482411004149245648e-02,8.217789743256742607e-02,7.945510601406055584e-02,7.660219273697844999e-02,7.358886800492878133e-02,7.051190450810272681e-02,6.713790538938629870e-02,6.371276071704953803e-02,5.993450612980617820e-02,5.585716558600684056e-02,5.130264177781810458e-02,4.622040721204254132e-02,4.018624667978534792e-02,3.311181887965219950e-02,2.426178338007141042e-02,1.562424356545256098e-02,1.073341347802726428e-02,7.203329936981148554e-03,4.406337677196887730e-03,2.194646533634047724e-03,7.698717127934378689e-04,1.909878822878408153e-04,nan
nan,1.823897269732507268e-04,5.839866417411629113e-04,1.874819005503718800e-03,3.490315378262102107e-03,5.786493115658158590e-03,9.453038982202127335e-03,1.547948144039497376e-02,2.322880163627928651e-02,3.223182255084681980e-02,3.949876931808440905e-02,4.556118435161556068e-02,5.076111980925993722e-02,5.523180803980081571e-02,5.936191878204388761e-02,6.309068816935391177e-02,6.662794433833647834e-02,6.992501150689950373e-02,7.303538356775375606e-02,7.595976015302066675e-02,7.875377093643916304e-02,8.146549681566463141e-02,8.402117726300906142e-02,8.651059300639520055e-02,8.892591746574550482e-02,9.123870209159490319e-02,9.348763970518972344e-02,9.566617667615504028e-02,9.776742178123945526e-02,9.979670703734613846e-02,1.017652116250047922e-01,1.036542703272911592e-01,1.055145054813710348e-01,1.072936225510485175e-01,1.089857681400479422e-01,1.106190243408089746e-01,1.121940471233077441e-01,1.136430390660069234e-01,1.150143266321435320e-01,1.162997444363553790e-01,1.175178677863357446e-01,1.186126346031642353e-01,1.195889284749515336e-01,1.204776433353894338e-01,1.212571153175739519e-01,1.219050167119732631e-01,1.223990106594077115e-01,1.227967743063478057e-01,1.230347731506526016e-01,1.231401695515878386e-01,1.231246458061767413e-01,1.229398901613232009e-01,1.226867841225307842e-01,1.222411346755219175e-01,1.216790053175643704e-01,1.209809122819620608e-01,1.201776556197509671e-01,1.192558808353135075e-01,1.182222119529185711e-01,1.170966267207526473e-01,1.158277142319819042e-01,1.144846746748218458e-01,1.130770384356157843e-01,1.115660424929805217e-01,1.099690740110516179e-01,1.083135879809561108e-01,1.065866985063860239e-01,1.047926914236389367e-01,1.029091303415551328e-01,1.009390142647028366e-01,9.893905462043818544e-02,9.686783168627331742e-02,9.470848144962441817e-02,9.249498869593737738e-02,9.023034077993055679e-02,8.786191140623607343e-02,8.539098403979153429e-02,8.285627515193247361e-02,8.021190979138684285e-02,7.745573137306002720e-02,7.461385970568118475e-02,7.165095548813361914e-02,6.844321671879127766e-02,6.506773782807952211e-02,6.143472110155996646e-02,5.767116188507586533e-02,5.333612618638375324e-02,4.855314974552979446e-02,4.308383662913783940e-02,3.661241649311758328e-02,2.864677334393879449e-02,2.065347797357256973e-02,1.210328669858471394e-02,8.407771106871200772e-03,5.657420347289813904e-03,3.278215153242809189e-03,1.444983488253237481e-03,4.445768137488752703e-04,8.035831938812295597e-05,nan
nan,5.914104089275106050e-05,3.889154056850124786e-04,1.074343789435880771e-03,2.438902594769332913e-03,4.330686665310903849e-03,7.105036818395631983e-03,1.158882424703363764e-02,1.796869490425535842e-02,2.659011257305163994e-02,3.521639335017139050e-02,4.202593471913357304e-02,4.755086555796069619e-02,5.250863633646032230e-02,5.686509678572278237e-02,6.063378375527835040e-02,6.436201344382390388e-02,6.770916279082905831e-02,7.082733453824741066e-02,7.382465840303602256e-02,7.665968295531344623e-02,7.936081731118516114e-02,8.194449643872948885e-02,8.444263314584413149e-02,8.684766558633888467e-02,8.915446748090669060e-02,9.137239855545532807e-02,9.353575302254082957e-02,9.560855713788243837e-02,9.761151247963587019e-02,9.952784317659574276e-02,1.013955015595960074e-01,1.031993279787531137e-01,1.049328294651424714e-01,1.065871843180218881e-01,1.081553499909701233e-01,1.096977584748640433e-01,1.110656283704160585e-01,1.123712836521215119e-01,1.136156395480684422e-01,1.147905373710591537e-01,1.158254890524142156e-01,1.167543186325024906e-01,1.176047745531853816e-01,1.183464441932875755e-01,1.189528145948319654e-01,1.194284023784745741e-01,1.197918305025301722e-01,1.200162086037003667e-01,1.201452973798378676e-01,1.201309499038377415e-01,1.199541986914389180e-01,1.196766498868633566e-01,1.192510612260040265e-01,1.187531164375207060e-01,1.180948403179395562e-01,1.173370142062447885e-01,1.164411914041982299e-01,1.154570080109191266e-01,1.143790023167485098e-01,1.131703907636953665e-01,1.118791696972009780e-01,1.105200588035669673e-01,1.090594336639238993e-01,1.075449930177014568e-01,1.059164991595775152e-01,1.042311160105239137e-01,1.024868951026049468e-01,1.006442436625901438e-01,9.872795216196837698e-02,9.677313089360607690e-02,9.471251246391212963e-02,9.258121662549959052e-02,9.040426123010623927e-02,8.815131964900535522e-02,8.576330420224241580e-02,8.333842720903346379e-02,8.078899061702952966e-02,7.812513978019010319e-02,7.535335935697939913e-02,7.253519137874749056e-02,6.950013839707561147e-02,6.628399419956930438e-02,6.279006145574640707e-02,5.910139593105008526e-02,5.499198503997587695e-02,5.065065240020823201e-02,4.550316917353934565e-02,3.951040029200725279e-02,3.260537677765409925e-02,2.401257118480236083e-02,1.569292657751709605e-02,9.932315382893526501e-03,6.658052366412366835e-03,3.938984270784531491e-03,1.998073655812654132e-03,8.164582009500408362e-04,2.832764053700371825e-04,4.910696130310536923e-05,nan
nan,7.062411666113837096e-06,1.924717981559048610e-04,5.198043767269264681e-04,1.555195829536604223e-03,3.052591631522218532e-03,5.683017876843479178e-03,9.076457103578969635e-03,1.365341393025822775e-02,2.188680238484039947e-02,3.069188112591405074e-02,3.755583023300652912e-02,4.419237807857558792e-02,4.943746289636392899e-02,5.399894740370258378e-02,5.812084605836818907e-02,6.182647935614794810e-02,6.532406833650133970e-02,6.854810666208055459e-02,7.158401084304012729e-02,7.442980992670406026e-02,7.718784063494640857e-02,7.976620298170783441e-02,8.226318030133214498e-02,8.467642930758567665e-02,8.696712404453468825e-02,8.919112749663751782e-02,9.131817997985051949e-02,9.335807485518093918e-02,9.535481181288261998e-02,9.726207651676099797e-02,9.907705652781448324e-02,1.008447719794838549e-01,1.025266542206738074e-01,1.041375784761395668e-01,1.056574319152890212e-01,1.071111203951659041e-01,1.084712959568266133e-01,1.097553194931797094e-01,1.109729075891997957e-01,1.120523656895785203e-01,1.130634029466979773e-01,1.139775141317043161e-01,1.147600733839714282e-01,1.154436600778362826e-01,1.160276770759198633e-01,1.164887034204915572e-01,1.168305042450394349e-01,1.170763799408270356e-01,1.171734764440463678e-01,1.171380697012736061e-01,1.169797982016020088e-01,1.167230764426050310e-01,1.163605253980843218e-01,1.158515194243471963e-01,1.152119226475798175e-01,1.144942899570766393e-01,1.136476485036068546e-01,1.127174557401807165e-01,1.116646887765664203e-01,1.105028709211840765e-01,1.092750707931381959e-01,1.079374247467178027e-01,1.065448516196496609e-01,1.050712950252054440e-01,1.034848429716984652e-01,1.018412784396106191e-01,1.001125154665611916e-01,9.831946854889064835e-02,9.645605962642847531e-02,9.450290044521514332e-02,9.249485467027093732e-02,9.038923059653794501e-02,8.822526515274886627e-02,8.596224104062996640e-02,8.361884369654515314e-02,8.117448215855481430e-02,7.862046337210767954e-02,7.592781352798230743e-02,7.314981031699027691e-02,7.034523195905205417e-02,6.721204916906764470e-02,6.390274669829196230e-02,6.038573816651305465e-02,5.645005598191148860e-02,5.230228467429791361e-02,4.747527283090371975e-02,4.192652810514282957e-02,3.524843508841861428e-02,2.799054057861861955e-02,1.905101112159215612e-02,1.226912220653485555e-02,7.711546570979038902e-03,4.864367802898467846e-03,2.864220738435020383e-03,1.389842051850645813e-03,3.759201644074309937e-04,7.954552650570073007e-05,3.600490513326020735e-06,nan
nan,3.212568865435346227e-07,5.393875421328431929e-05,2.796310583168687696e-04,8.516759325272386764e-04,2.321787066068905191e-03,4.499749357801533997e-03,7.167588041865324486e-03,1.140493239229810850e-02,1.818705542266628797e-02,2.546995556823366397e-02,3.273614000121040368e-02,4.009710311205850336e-02,4.601342545331797707e-02,5.099959473838576451e-02,5.529916572819805476e-02,5.919150394147958127e-02,6.279770440840706791e-02,6.605454213373700145e-02,6.918566094392064603e-02,7.212639728593177313e-02,7.488192394781292838e-02,7.752208368553528683e-02,8.000714810778578046e-02,8.240682429465839842e-02,8.470941572101459149e-02,8.692678765589416379e-02,8.903058174170896955e-02,9.107520262673435285e-02,9.301322788662942653e-02,9.490049660732334524e-02,9.670537803788076259e-02,9.842741005588041825e-02,1.000693114869296990e-01,1.016514456811406508e-01,1.031494185247934930e-01,1.045628417041274960e-01,1.058823498970611066e-01,1.071105577214004623e-01,1.082629511359755603e-01,1.093381590530371344e-01,1.102964722113884549e-01,1.111750950157805312e-01,1.119347612636097528e-01,1.125879490065438415e-01,1.131395805100132990e-01,1.135854200098398159e-01,1.138883617430716949e-01,1.141307879756986166e-01,1.142197092533574626e-01,1.141869955858062502e-01,1.140635968921817345e-01,1.138251426527235738e-01,1.134231202342407541e-01,1.129577906496161965e-01,1.123731692106278574e-01,1.116626597716933456e-01,1.108698543802415226e-01,1.099462414661297599e-01,1.089121083862332751e-01,1.078237048507126594e-01,1.066297587811945446e-01,1.053646449314734196e-01,1.039975984895250977e-01,1.025472208211902075e-01,1.010165630011548021e-01,9.940764017989120460e-02,9.773445037622191522e-02,9.596606528623737031e-02,9.410921986622361457e-02,9.221257905520714726e-02,9.019463322028443975e-02,8.812603578262759307e-02,8.595305347790908879e-02,8.369720674813085903e-02,8.133112216539789552e-02,7.888799646471156279e-02,7.635159230037974476e-02,7.363757678786798933e-02,7.085079231767398011e-02,6.795085895546548738e-02,6.481345811583867633e-02,6.136530842336192226e-02,5.764242428778610511e-02,5.369627296570732289e-02,4.915189565499032687e-02,4.398728911949480180e-02,3.772374401081375617e-02,3.058090670183000875e-02,2.195257880393488084e-02,1.485585683126688060e-02,1.047143835582742093e-02,6.150986860181268008e-03,3.545287256882967853e-03,1.981233227144684785e-03,6.581699342315271064e-04,2.992710899267006768e-04,5.300210711631076904e-06,6.840457071020550084e-07,nan
nan,1.487287672340642685e-09,4.885666767038094372e-06,7.497749830704861619e-05,6.141615146101687180e-04,1.661407227564271408e-03,3.616208940539326205e-03,6.188827070360700816e-03,9.660332469402996280e-03,1.396813105047288624e-02,2.038894025193868989e-02,2.777866063769509133e-02,3.574718409879820008e-02,4.208567078651291593e-02,4.753601615001445957e-02,5.223538306119815400e-02,5.630108064139137392e-02,6.008697534644217436e-02,6.353162111058152650e-02,6.664404265963974616e-02,6.963284543382622371e-02,7.246297766365480952e-02,7.510415805157824587e-02,7.763796595690454494e-02,8.004344828592405148e-02,8.236446505956797337e-02,8.455909256225181692e-02,8.668554177965658025e-02,8.869283661220980775e-02,9.064048580654540666e-02,9.250009745793424942e-02,9.427105778198067998e-02,9.597546582104818369e-02,9.758642906078865420e-02,9.913897800207294164e-02,1.005937888791104823e-01,1.019703524444861287e-01,1.032453659618993019e-01,1.044525600419903000e-01,1.055684400390087402e-01,1.065964033565206248e-01,1.075311342030732531e-01,1.083359325504737458e-01,1.091039501799327266e-01,1.097467425277332681e-01,1.102699179879077229e-01,1.106831206212070262e-01,1.110138508716335959e-01,1.112009137441827278e-01,1.112822058762446276e-01,1.112782438392991291e-01,1.111453028392392489e-01,1.108597869626388316e-01,1.105440244269675770e-01,1.100567495434477128e-01,1.095061293878027281e-01,1.088293558072801481e-01,1.080543489117948563e-01,1.071679534133914286e-01,1.062107052797707785e-01,1.051201458144601086e-01,1.039868584577947341e-01,1.027432526543438362e-01,1.014061740085926977e-01,9.998623172822083960e-02,9.850274454212658293e-02,9.691193170548847990e-02,9.527327140244477854e-02,9.351775318886021426e-02,9.171422515122279462e-02,8.982904138990584209e-02,8.784432286317936378e-02,8.577933747032900902e-02,8.361757554204188314e-02,8.136757584573447999e-02,7.900794940912012065e-02,7.652945060139172695e-02,7.391378562893857751e-02,7.122551377354868762e-02,6.839525889219952304e-02,6.537214933534839234e-02,6.212749610863529254e-02,5.859873728887320804e-02,5.482802461581535308e-02,5.051806340928267913e-02,4.559283931943713952e-02,3.925235526740256109e-02,3.298757451308926419e-02,2.446705552641122508e-02,1.768435111228077589e-02,1.059860819019748518e-02,7.338754600462162915e-03,4.690217038559736998e-03,2.765474842901669006e-03,1.125469996288736441e-03,2.706500802552281280e-04,6.436888139309467646e-05,2.208410846361549884e-07,2.553377651136882102e-10,nan
