nan,0.000000000000000000e+00,0.000000000000000000e+00,0.000000000000000000e+00,0.000000000000000000e+00,5.326207994101721849e-38,1.273891913708010654e-22,5.214243029986563906e-11,2.258556199303988657e-10,3.189093175636939984e-06,1.308573766024813618e-04,1.197489945819383899e-03,3.168116883742110208e-03,5.982940569661097767e-03,1.129235073021046115e-02,2.145118443987986678e-02,3.401799764220806571e-02,4.477686355626424308e-02,5.330753575931847232e-02,6.050893703518014227e-02,6.699526104946217087e-02,7.281783415991478770e-02,7.824317959544099810e-02,8.326835286994130336e-02,8.797686923406902726e-02,9.247978848278223807e-02,9.672069409414749130e-02,1.008213810029205126e-01,1.048119758896518400e-01,1.087245286636982222e-01,1.125228070332665309e-01,1.163877676893759622e-01,1.202278532240624170e-01,1.240489687336749358e-01,1.279436629344369580e-01,1.317944325218122215e-01,1.356801297444765741e-01,1.395608838359299886e-01,1.435151673259195126e-01,1.473265013274021040e-01,1.512913434057731876e-01,1.549641913282772121e-01,1.587411700685125437e-01,1.622227164375959207e-01,1.655808956805715493e-01,1.684432377428490835e-01,1.707273057116420745e-01,1.729055699517075551e-01,1.741081665042050197e-01,1.747639105794297765e-01,1.748778624137228566e-01,1.740106666964616466e-01,1.723852138118308064e-01,1.704360098079964470e-01,1.678885016785681139e-01,1.647570227253240815e-01,1.611726358768860168e-01,1.575927360564413071e-01,1.535496654401832251e-01,1.497806158711054714e-01,1.459235944703044796e-01,1.420946726078748390e-01,1.381816705597416206e-01,1.343655201400093813e-01,1.304605444494348898e-01,1.266298840673823478e-01,1.227841483463705530e-01,1.188980207738435102e-01,1.150112453136299118e-01,1.111104841450826219e-01,1.071157803050058061e-01,1.030548083274117621e-01,9.886961196948004793e-02,9.462076042296217737e-02,9.019356046720555797e-02,8.554505499944591029e-02,8.079649687562190374e-02,7.573720223635012350e-02,7.031715955588133116e-02,6.446475856776796853e-02,5.783496014016918652e-02,4.940364401793139598e-02,3.938301180839653276e-02,2.700646853172666492e-02,1.455368760484805103e-02,7.722547968836504691e-03,3.935870170708058967e-03,1.375117756569238384e-03,2.895468189897905994e-04,2.935847827987533897e-05,4.481755056883644925e-07,5.243150915451122878e-09,1.464811958023767669e-12,4.333229616290809750e-18,1.139534232074990251e-39,0.000000000000000000e+00,0.000000000000000000e+00,0.000000000000000000e+00,0.000000000000000000e+00,nan
nan,0.000000000000000000e+00,0.000000000000000000e+00,0.000000000000000000e+00,0.000000000000000000e+00,0.000000000000000000e+00,1.061949656396282877e-17,5.758877632280984748e-12,1.588547142914061777e-08,2.925295012284513160e-06,1.569198154014250844e-04,6.009697746170879467e-04,2.662100688706356411e-03,5.380779939819403321e-03,8.863657986544353634e-03,1.957516573235239254e-02,3.113189584563416309e-02,4.277991594363625416e-02,5.142723853439368220e-02,5.880639303212562008e-02,6.535114158914238913e-02,7.133148986679205272e-02,7.671404500436405927e-02,8.169914679538579916e-02,8.643018008271401154e-02,9.085454742751498947e-02,9.515580361642586582e-02,9.923420805261978783e-02,1.031886302347649609e-01,1.070765555886218356e-01,1.108949890513237085e-01,1.146511761129809237e-01,1.183920090688368176e-01,1.221407561713294398e-01,1.258323037964532709e-01,1.295164197305488929e-01,1.332634486115396588e-01,1.369121383854153551e-01,1.405217388461776074e-01,1.441395330861270363e-01,1.477291182416406168e-01,1.511920010781250545e-01,1.545827208954471677e-01,1.577819808107577271e-01,1.604778079313865791e-01,1.630422841012265089e-01,1.650812774125960114e-01,1.667713033803003841e-01,1.679196537193631267e-01,1.684572439134698341e-01,1.683775662804043727e-01,1.678532579564708527e-01,1.664574205465768342e-01,1.646423346606972204e-01,1.624675206745012646e-01,1.598007181898667417e-01,1.567379062574882354e-01,1.534707522730630047e-01,1.500204846246377122e-01,1.465294436002733680e-01,1.429378557030622499e-01,1.393196944570756768e-01,1.356398749980856633e-01,1.319899220190219047e-01,1.282605235672394373e-01,1.245776628915739037e-01,1.208366765241085106e-01,1.171149534861177371e-01,1.133032205813528093e-01,1.094511633571424447e-01,1.055329494644732663e-01,1.014978057378051746e-01,9.737679702138032911e-02,9.310549257112811505e-02,8.874105266373472078e-02,8.416723395513699135e-02,7.933495070990452536e-02,7.413324637142448825e-02,6.869817257867165405e-02,6.261127172534290686e-02,5.576503138924129854e-02,4.757344478364243512e-02,3.704717182527113989e-02,2.413289930563405905e-02,1.386441786857836068e-02,7.641074145682024039e-03,3.312409310623993641e-03,1.214006786595746550e-03,3.115822574317183300e-04,1.529086991753478615e-06,5.500435735615981681e-08,1.652887871175493795e-10,4.341723428975660533e-14,3.747072564108579444e-26,3.941839993601313039e-27,0.000000000000000000e+00,0.000000000000000000e+00,0.000000000000000000e+00,0.000000000000000000e+00,nan
nan,0.000000000000000000e+00,0.000000000000000000e+00,0.000000000000000000e+00,0.000000000000000000e+00,0.000000000000000000e+00,2.044661929929815707e-25,3.244236023358283011e-13,6.828434264069967790e-09,2.591629824954133987e-06,2.251900164198652543e-04,5.976027540695446824e-04,2.227921699765740907e-03,4.719004379552926148e-03,8.685178072958594023e-03,1.475265716563285701e-02,2.749071250010901024e-02,3.955654766322749816e-02,4.893942159636500977e-02,5.675720567682592671e-02,6.351890086400668878e-02,6.949653834514188389e-02,7.498997937627335797e-02,7.999694042417830608e-02,8.468675829785671239e-02,8.914175830214465801e-02,9.340517005474607837e-02,9.752116634918760185e-02,1.014549887328160538e-01,1.052804968229801991e-01,1.090337884689366321e-01,1.127467704529349080e-01,1.164068694326828857e-01,1.200081613990263418e-01,1.236019311451767161e-01,1.271336656554622191e-01,1.306434976884136567e-01,1.341425695642932681e-01,1.375663176158308243e-01,1.409212591173572560e-01,1.442311249400777817e-01,1.473656924025912307e-01,1.503645751209722603e-01,1.531677740397683340e-01,1.556096757174060541e-01,1.579762436007681459e-01,1.597607067985687690e-01,1.612189008341485263e-01,1.620760091186951857e-01,1.624171236602415247e-01,1.625227386264407881e-01,1.619925193614158987e-01,1.607666066323067966e-01,1.592677193349328058e-01,1.573394508938056879e-01,1.549958701005342276e-01,1.522691775188987073e-01,1.494039586420593535e-01,1.463005525085281089e-01,1.430310444863026054e-01,1.397623442509349501e-01,1.363165134154327163e-01,1.329502178340105090e-01,1.294568180362943022e-01,1.259736830054858925e-01,1.223693101847362769e-01,1.187522394654856178e-01,1.150945004262087235e-01,1.113863692664824601e-01,1.076107113053262482e-01,1.037496714309200929e-01,9.978330090292457377e-02,9.567129568887410007e-02,9.148229951026540241e-02,8.708236753690773435e-02,8.251626206137058217e-02,7.758364385318508583e-02,7.241087892503055012e-02,6.692500316841852592e-02,6.065941868929315695e-02,5.340294634645069427e-02,4.469937619419055153e-02,3.291570177757115190e-02,2.073670560449894507e-02,1.079096686181629447e-02,6.238968464001530892e-03,3.318029282058805249e-03,8.105325500218503150e-04,1.036430113675093070e-04,1.577567403197419030e-05,3.672957242755346696e-09,3.989751969503271403e-14,2.244239142268269692e-20,2.898599615352659446e-30,0.000000000000000000e+00,0.000000000000000000e+00,0.000000000000000000e+00,0.000000000000000000e+00,0.000000000000000000e+00,nan
nan,0.000000000000000000e+00,0.000000000000000000e+00,0.000000000000000000e+00,0.000000000000000000e+00,0.000000000000000000e+00,6.396061689622409477e-21,3.453371171758795590e-13,5.435049965955872558e-11,4.902290005290113983e-07,2.733092046250783376e-05,6.809656593350534156e-04,1.930773167413965064e-03,4.263547967385822833e-03,7.249671447754798582e-03,1.352296857446810829e-02,2.366925815206321129e-02,3.580286301798973198e-02,4.585978780280682704e-02,5.424254892487595514e-02,6.111962490038140572e-02,6.744684809990175722e-02,7.291362799981890297e-02,7.812533929670778532e-02,8.283335993777843353e-02,8.727166046874938743e-02,9.155580347637956584e-02,9.563441801032564193e-02,9.956051186661596386e-02,1.033410102382083112e-01,1.070203117465634568e-01,1.106569595022908331e-01,1.142391575201428394e-01,1.176715975278851550e-01,1.212229419106435196e-01,1.246107778725471793e-01,1.279770882523428299e-01,1.312450551085481143e-01,1.345111793503439013e-01,1.375835140375467058e-01,1.405828681828691640e-01,1.435265912629983542e-01,1.462774694608571791e-01,1.487356393591941495e-01,1.509842301614945093e-01,1.530311493013071511e-01,1.545413797446239801e-01,1.558421215855456676e-01,1.565663770824865797e-01,1.570903453377756886e-01,1.570067053066866725e-01,1.563772604934348109e-01,1.554966247792067824e-01,1.542111609646682480e-01,1.524577112253847899e-01,1.503010878913910719e-01,1.479805524216381563e-01,1.453366639645263803e-01,1.426002302456322868e-01,1.396021033670847844e-01,1.365509728495288566e-01,1.333394611678610508e-01,1.301356310606123778e-01,1.267842602259358353e-01,1.233263276026737021e-01,1.199909194452614958e-01,1.165142779789768435e-01,1.129400851830368868e-01,1.093235049491378258e-01,1.055479207820424481e-01,1.017962338095792091e-01,9.785569321003149967e-02,9.380589196534755425e-02,8.960955473737805543e-02,8.523806305918378567e-02,8.059298621089493186e-02,7.570723972168688642e-02,7.041954020167892625e-02,6.478149039065013437e-02,5.837804676045493801e-02,5.043883398924185746e-02,4.126975083408461475e-02,2.911997865627686394e-02,1.767513502059100960e-02,8.805747838238654757e-03,5.352542176143993552e-03,2.467122675523553306e-03,5.271385646572449186e-04,2.417268682754902261e-05,1.118964265718190337e-07,9.310505288935565217e-09,5.360783581713588170e-16,3.152961070032173306e-21,0.000000000000000000e+00,0.000000000000000000e+00,0.000000000000000000e+00,0.000000000000000000e+00,0.000000000000000000e+00,0.000000000000000000e+00,nan
nan,0.000000000000000000e+00,0.000000000000000000e+00,0.000000000000000000e+00,0.000000000000000000e+00,0.000000000000000000e+00,7.050276866796559035e-26,3.805882844408832663e-18,2.853900939383367796e-12,9.948102022797787780e-09,2.209156084334128049e-05,3.786988184779977373e-04,1.309473528918860983e-03,3.471397757512687324e-03,5.902091729467674568e-03,1.046216979686883340e-02,2.033130758429160106e-02,3.141024047262861579e-02,4.228060717777183675e-02,5.117296846287949785e-02,5.879298579364774374e-02,6.516339354827187236e-02,7.069509088670315744e-02,7.593778873074956415e-02,8.070111424007547773e-02,8.519993205703021988e-02,8.949438099816009462e-02,9.351708473483322237e-02,9.742909628982879267e-02,1.012093820976372183e-01,1.048622371828602517e-01,1.083922513598706006e-01,1.119001981564325260e-01,1.153081790756130126e-01,1.186579528941812678e-01,1.219658690704417264e-01,1.251701659428323121e-01,1.282631436664539715e-01,1.313149725723664896e-01,1.342566727811382310e-01,1.369575319594611706e-01,1.397547517892427371e-01,1.421593646906841868e-01,1.444196834482534830e-01,1.464947589042752130e-01,1.481688081615174790e-01,1.496481145462162377e-01,1.507391715864714321e-01,1.514874721688080073e-01,1.518430455045303162e-01,1.518146516539549129e-01,1.513037336699472324e-01,1.504161980505226981e-01,1.493218139386704446e-01,1.477252457910557260e-01,1.458504659799255698e-01,1.437372816668878173e-01,1.413943030579165039e-01,1.388067919293745067e-01,1.360819163177885982e-01,1.332426574237555728e-01,1.301983482343082588e-01,1.271624600193862475e-01,1.239686401356407119e-01,1.207987250705696292e-01,1.175007278996872129e-01,1.141012046169529726e-01,1.106516422969010260e-01,1.070781306931099242e-01,1.034304246512834230e-01,9.967325384261960242e-02,9.580501682510349226e-02,9.174345086815124950e-02,8.757134789710935285e-02,8.321643397180722435e-02,7.856366431748956769e-02,7.361006175629468407e-02,6.816131414127080124e-02,6.223539036263599222e-02,5.568192094574091200e-02,4.766029152075433595e-02,3.670740955928504523e-02,2.516866188918446059e-02,1.483613378871118972e-02,8.228866148036015349e-03,4.109174071363526359e-03,1.201973787594885204e-03,1.865271015427739975e-04,4.882751169562532994e-05,1.101395589235364902e-07,5.492493354304686430e-11,7.523552054971082306e-16,9.822048563159037001e-34,0.000000000000000000e+00,0.000000000000000000e+00,0.000000000000000000e+00,0.000000000000000000e+00,0.000000000000000000e+00,0.000000000000000000e+00,nan
nan,0.000000000000000000e+00,0.000000000000000000e+00,0.000000000000000000e+00,0.000000000000000000e+00,0.000000000000000000e+00,1.924817376021433171e-38,9.665622343207525110e-26,1.932029560149373033e-17,6.293746286567809595e-09,4.547779576090122956e-06,3.399435257338420343e-04,1.056768101961244599e-03,2.485496357092256171e-03,4.961326377806429648e-03,9.368593055080667170e-03,1.774860391744017066e-02,2.637506474073421023e-02,3.754371778923351610e-02,4.776899037514045765e-02,5.585276759033776239e-02,6.244929423558060605e-02,6.831993454997206672e-02,7.353702051677314666e-02,7.842239645297517658e-02,8.292579762964356893e-02,8.720868616989692346e-02,9.128972837996413014e-02,9.517462525906585091e-02,9.892340068476103421e-02,1.025478824425833796e-01,1.060589209137118294e-01,1.094033937658781958e-01,1.127710091567434014e-01,1.159961218895325663e-01,1.191677364547851503e-01,1.222428358478094834e-01,1.251666365036097073e-01,1.281092253758712440e-01,1.308183091810378451e-01,1.334285552421023979e-01,1.358580799132742822e-01,1.381473172536305527e-01,1.402925318229973906e-01,1.421054490552627336e-01,1.436770086892957821e-01,1.449084662440185967e-01,1.458717304715066998e-01,1.465170081368202815e-01,1.468318033529809330e-01,1.468155571936021198e-01,1.464669568576771885e-01,1.456503196058859528e-01,1.445600613384767086e-01,1.432160157282492963e-01,1.414782364785567292e-01,1.395701783307892185e-01,1.374083351109017526e-01,1.350617964490032075e-01,1.325032434378587698e-01,1.298941799203729430e-01,1.270677273827511833e-01,1.241679220153344421e-01,1.211533468190895690e-01,1.180328150138787863e-01,1.148219608883687959e-01,1.115606081699723473e-01,1.081745613803926365e-01,1.047084453455276315e-01,1.010685613003288880e-01,9.738881436879184839e-02,9.354316388551853212e-02,8.955918333916305929e-02,8.534075464621090901e-02,8.093293870479262297e-02,7.626360855852437615e-02,7.121619846693437450e-02,6.574747736888800209e-02,5.931238097382313113e-02,5.216996834532999783e-02,4.353959468791900045e-02,3.283636573156590438e-02,2.074407125700225910e-02,1.160008106544738876e-02,6.561299668625357809e-03,2.979282546317539582e-03,9.084636877519652745e-04,1.452316511546509299e-04,1.189387793202453998e-05,1.416239291550028471e-06,2.433400354460331572e-15,1.581904826011667516e-16,9.607158652416537229e-34,5.008797926534485956e-35,0.000000000000000000e+00,0.000000000000000000e+00,0.000000000000000000e+00,0.000000000000000000e+00,0.000000000000000000e+00,nan
nan,0.000000000000000000e+00,0.000000000000000000e+00,0.000000000000000000e+00,0.000000000000000000e+00,0.000000000000000000e+00,3.745720061121606572e-30,4.313983455220487406e-27,1.975828681801856917e-14,6.874146440576346105e-10,1.065508018253303292e-05,9.463597065007057813e-05,7.119023679741942352e-04,1.957826047693110496e-03,4.069752282581799371e-03,8.035654308382645522e-03,1.408442699987809063e-02,2.184833041403036469e-02,3.255177120075730679e-02,4.361332060781591274e-02,5.243045568041157511e-02,5.957693252049028193e-02,6.548606572357268396e-02,7.090069105166613150e-02,7.589067164921672881e-02,8.050808655511633438e-02,8.481215379757883754e-02,8.887692117729925623e-02,9.275366350406194504e-02,9.650156469658240088e-02,1.000320897694867150e-01,1.035253860001195542e-01,1.068496741339604317e-01,1.100506678415417439e-01,1.131942638026435660e-01,1.162683741410866500e-01,1.192059974106152720e-01,1.220287128920713449e-01,1.247802729553292855e-01,1.273732755782945036e-01,1.298338970306340823e-01,1.321138356499745037e-01,1.342289767667222966e-01,1.361380772892363811e-01,1.378876040040700746e-01,1.392654697813064113e-01,1.403551179660693649e-01,1.413017679701764340e-01,1.418945457920882114e-01,1.421093328836496306e-01,1.421081664009499756e-01,1.417282398265503063e-01,1.409610559430338195e-01,1.400820959342595762e-01,1.387863100820801443e-01,1.371557506545292571e-01,1.354653306918114086e-01,1.334036288632707845e-01,1.313214153964924191e-01,1.289581195442955353e-01,1.264472145706727058e-01,1.237813334244483032e-01,1.210735798112286543e-01,1.181802185067512834e-01,1.151443656331491566e-01,1.120985480818093571e-01,1.089071491374920264e-01,1.055955558269335431e-01,1.021467966093460716e-01,9.863342998748204915e-02,9.496315539802080430e-02,9.109709043436198250e-02,8.713925405998322604e-02,8.294795604583476978e-02,7.853287989092666566e-02,7.369205261314848432e-02,6.854982768379722091e-02,6.287070875196400233e-02,5.625876580953187434e-02,4.845137748506974512e-02,3.921693800015495224e-02,2.793446873304789718e-02,1.718044903849723012e-02,9.847983310389480868e-03,5.581190676444632709e-03,2.324821224409655274e-03,5.803524025827505725e-04,3.562326430891969530e-05,1.826417027340777906e-06,3.407469509518594232e-09,1.159091494768309787e-13,3.247786374146030503e-19,1.056753211505225337e-28,0.000000000000000000e+00,0.000000000000000000e+00,0.000000000000000000e+00,0.000000000000000000e+00,0.000000000000000000e+00,0.000000000000000000e+00,nan
nan,0.000000000000000000e+00,0.000000000000000000e+00,0.000000000000000000e+00,0.000000000000000000e+00,0.000000000000000000e+00,2.955421423771408728e-30,1.691265560533643452e-20,7.031647710436097811e-14,9.960735387371298197e-10,7.091321117801049887e-07,4.591868564986489729e-05,3.727408792798195670e-04,1.314217122097501717e-03,2.845314636709159618e-03,5.922109512286675807e-03,1.110847877384507111e-02,1.695798464789434121e-02,2.704518170489790541e-02,3.882248148100204271e-02,4.846374763654315299e-02,5.617235620013088376e-02,6.254806549295538476e-02,6.800293574899123061e-02,7.308560378577452776e-02,7.785420768383007062e-02,8.217582885036511797e-02,8.628166311058053928e-02,9.018526170429996824e-02,9.386297803134228956e-02,9.742206900967287364e-02,1.008387426296925016e-01,1.041273467676677028e-01,1.072701216562136073e-01,1.103265606318598602e-01,1.132802017452103072e-01,1.161191342987931557e-01,1.188165351449705226e-01,1.214121807142040099e-01,1.238854974761796207e-01,1.261863583068784656e-01,1.282980802770526119e-01,1.303213541545689136e-01,1.320605455270636996e-01,1.336515842374667029e-01,1.349695546090997345e-01,1.360406227781919553e-01,1.368121328732285202e-01,1.373047938265963275e-01,1.376120262119439608e-01,1.375074483131947800e-01,1.372036165689322074e-01,1.365627436526288818e-01,1.356672468447315816e-01,1.344910021599283745e-01,1.331292661204132866e-01,1.314168205370544740e-01,1.296111234712437610e-01,1.276347811940510835e-01,1.253722946692890916e-01,1.230296322287374178e-01,1.204669246042176928e-01,1.178609263451778078e-01,1.150929881473322647e-01,1.122372356760127365e-01,1.092333368399529547e-01,1.061115548888463544e-01,1.028685347373655551e-01,9.948668522444237272e-02,9.601944194985108372e-02,9.235230053938907335e-02,8.853806676418748967e-02,8.451622058635138712e-02,8.032272297616253887e-02,7.583917255821022441e-02,7.097024028921966599e-02,6.552828474891579658e-02,5.956684209535891700e-02,5.268586813432153682e-02,4.421135129318309875e-02,3.417603810082719268e-02,2.258403199113322157e-02,1.338873561869833965e-02,8.256676623189494052e-03,4.944436706496198319e-03,2.394218320574965919e-03,6.620969779439774645e-04,2.544545347579522550e-05,7.328486841877106457e-07,2.473660329862335162e-09,5.030417974039864399e-19,4.932690582449950090e-19,1.552810344087699526e-28,0.000000000000000000e+00,0.000000000000000000e+00,0.000000000000000000e+00,0.000000000000000000e+00,0.000000000000000000e+00,0.000000000000000000e+00,nan
nan,0.000000000000000000e+00,0.000000000000000000e+00,0.000000000000000000e+00,0.000000000000000000e+00,0.000000000000000000e+00,0.000000000000000000e+00,1.116304097212873330e-29,4.067905098694049333e-14,8.344697959483430362e-11,2.566412797091779459e-07,5.644514766086226924e-05,1.425590113239536309e-04,5.464633862519796895e-04,1.812301776946935927e-03,4.311179393634518263e-03,7.363133232999696798e-03,1.209010411963903735e-02,2.208253348819651241e-02,3.350862719147259389e-02,4.393047203537818468e-02,5.212363655855027644e-02,5.902794656898690401e-02,6.478834035499711486e-02,7.012811055040138464e-02,7.491311378184153935e-02,7.936777879783692147e-02,8.349692807650510584e-02,8.740248001116260324e-02,9.105606425816180349e-02,9.462153773091488973e-02,9.800942633085441003e-02,1.012035362959828044e-01,1.043113950343320107e-01,1.073127855963509902e-01,1.101288185701668060e-01,1.129075150995242777e-01,1.155219079986932462e-01,1.179927931416131365e-01,1.203446291841914345e-01,1.225479529825588693e-01,1.245432324508221333e-01,1.263685729300495220e-01,1.280312636595955511e-01,1.294982938853910248e-01,1.306946711672487271e-01,1.317000304923894860e-01,1.324788366593126487e-01,1.329382479170673759e-01,1.331458437828216546e-01,1.330851227555646388e-01,1.328181043878793044e-01,1.322187448863576253e-01,1.314044972242290055e-01,1.303336229381920619e-01,1.289912465886778881e-01,1.274405649212254632e-01,1.257588318879600264e-01,1.238439138749054536e-01,1.217568161011286787e-01,1.194734754235540763e-01,1.171150615321279315e-01,1.145871290479120314e-01,1.119337403841662859e-01,1.091614441550158299e-01,1.061926248639832038e-01,1.031719909904520449e-01,9.995501100331730115e-02,9.667279205770708261e-02,9.322429318972513812e-02,8.959847958443810378e-02,8.580776358349398447e-02,8.174927172290623323e-02,7.749475884450321428e-02,7.278586510913058472e-02,6.778020843439759580e-02,6.234438322130198690e-02,5.589320603522164588e-02,4.832548788937598983e-02,3.928663951323952547e-02,2.854334540795232592e-02,1.757945465707444477e-02,1.048521179986495674e-02,6.829583922444103922e-03,3.690163212501746445e-03,1.203339519671456359e-03,2.903567303454202865e-04,2.957368322897229219e-05,7.650670094534457051e-07,1.592914491810133927e-12,1.160319059879057995e-13,4.703515876997163637e-29,0.000000000000000000e+00,0.000000000000000000e+00,0.000000000000000000e+00,0.000000000000000000e+00,0.000000000000000000e+00,0.000000000000000000e+00,0.000000000000000000e+00,nan
nan,0.000000000000000000e+00,0.000000000000000000e+00,0.000000000000000000e+00,0.000000000000000000e+00,0.000000000000000000e+00,0.000000000000000000e+00,5.102298502602820083e-30,1.573910014267113594e-21,1.174898521145177239e-14,1.272058386059022306e-07,2.776647999585703556e-07,1.731616897187935033e-05,3.112075723675895530e-04,1.050007170534602002e-03,2.692311588937481431e-03,5.168745799678942619e-03,9.106944411076492787e-03,1.681409941948409231e-02,2.734950124624776005e-02,3.839003619557645325e-02,4.728356247044079169e-02,5.483471664475200041e-02,6.128806255251990909e-02,6.674606192651089120e-02,7.178274000738044114e-02,7.627041451436303299e-02,8.049702857377175058e-02,8.444358281217745343e-02,8.813199259156441479e-02,9.165407302543962520e-02,9.502769483635538361e-02,9.822699899888345798e-02,1.012467769092100234e-01,1.041751378123765281e-01,1.069565009305517983e-01,1.096076943792501229e-01,1.121311313518202624e-01,1.145219582268500041e-01,1.167390926107120114e-01,1.188307727953842041e-01,1.207779218403770699e-01,1.224810908185809954e-01,1.240452435078888971e-01,1.253717728075278703e-01,1.265038136688312886e-01,1.274635262295033544e-01,1.281678182178348779e-01,1.286066427758758846e-01,1.288173940242771376e-01,1.287530397987385888e-01,1.284925982628456198e-01,1.279340202581113473e-01,1.271819485233330882e-01,1.261680848597603877e-01,1.249695443962936803e-01,1.235304277144501500e-01,1.218973825108202180e-01,1.201084564096121660e-01,1.181090173297497520e-01,1.159657548199887200e-01,1.136469644681019353e-01,1.112532460655508149e-01,1.086673597380542616e-01,1.059531533084453192e-01,1.030943772632336441e-01,1.000533843930779127e-01,9.698389668632184657e-02,9.372392586540276294e-02,9.025494665760985802e-02,8.664488965545964760e-02,8.277310120964992413e-02,7.873914586245196745e-02,7.434654960800922419e-02,6.961850200268457356e-02,6.435767512975683335e-02,5.847155357835880085e-02,5.146302153967249188e-02,4.323951558785148197e-02,3.366401045027569289e-02,2.244824879130436629e-02,1.441664815001617028e-02,8.380805393045228160e-03,5.057636893796265201e-03,2.419190953180052565e-03,7.470123076710956551e-04,1.368296972199365845e-04,2.212977240370206519e-05,1.001623084311912632e-08,7.713249095594472369e-13,2.102827602114820370e-26,1.153647249554006863e-29,0.000000000000000000e+00,0.000000000000000000e+00,0.000000000000000000e+00,0.000000000000000000e+00,0.000000000000000000e+00,0.000000000000000000e+00,0.000000000000000000e+00,nan
nan,0.000000000000000000e+00,0.000000000000000000e+00,0.000000000000000000e+00,0.000000000000000000e+00,0.000000000000000000e+00,0.000000000000000000e+00,0.000000000000000000e+00,1.187759627977345928e-31,9.344170592290179595e-15,1.852880948416305952e-14,6.309735767673672757e-10,4.284019542745839544e-06,4.068515336557466255e-05,4.490510999796022956e-04,1.648503114348711870e-03,3.631463954112586819e-03,6.951765976648300802e-03,1.218859946056738766e-02,2.053301636918435785e-02,3.230278497965975021e-02,4.192114500543386163e-02,5.032409791824701134e-02,5.718806828230645761e-02,6.325113387240624552e-02,6.832433904620469067e-02,7.300872240576987415e-02,7.721255800124252056e-02,8.124506699256939246e-02,8.497251575419137448e-02,8.856330850691848666e-02,9.188214553973066134e-02,9.503134862050942322e-02,9.808121773398613408e-02,1.009059334315060424e-01,1.036397701886687395e-01,1.062610635949631788e-01,1.086872446119457603e-01,1.109890917530189647e-01,1.131389310862700726e-01,1.151128863298479243e-01,1.169640175146240690e-01,1.185876237882191597e-01,1.200584203069359340e-01,1.213291546217987460e-01,1.224164035438690123e-01,1.232739984041336667e-01,1.238867028955069477e-01,1.243667656762810492e-01,1.245085334202822580e-01,1.244964223711296225e-01,1.242137186183711606e-01,1.237051641268935576e-01,1.229979352897108691e-01,1.220826870312496648e-01,1.209168666810372106e-01,1.195772528276206059e-01,1.180485778645716938e-01,1.163241152251008326e-01,1.144466118100716939e-01,1.123539405580079309e-01,1.101739658238551495e-01,1.078159114167851623e-01,1.053113881857881129e-01,1.026540337534203040e-01,9.986480721872229016e-02,9.691627845718972512e-02,9.384311904498038315e-02,9.055181297642608818e-02,8.711475206045217468e-02,8.344726177516312293e-02,7.957505587543739489e-02,7.543710479645664158e-02,7.098082254389986856e-02,6.605526663284343181e-02,6.067329587278622732e-02,5.429006195711776755e-02,4.604521756704358509e-02,3.711791349577330673e-02,2.711516816835139732e-02,1.697574920601110232e-02,1.135955532610096602e-02,6.759981389121275108e-03,3.427531167965056514e-03,1.610160706048206249e-03,3.532621634314906918e-04,4.969554429214723275e-05,1.212484647953776098e-05,2.828499109328067405e-09,3.666522082674652100e-13,3.345278872793195241e-27,0.000000000000000000e+00,0.000000000000000000e+00,0.000000000000000000e+00,0.000000000000000000e+00,0.000000000000000000e+00,0.000000000000000000e+00,0.000000000000000000e+00,0.000000000000000000e+00,nan
nan,0.000000000000000000e+00,0.000000000000000000e+00,0.000000000000000000e+00,0.000000000000000000e+00,0.000000000000000000e+00,0.000000000000000000e+00,0.000000000000000000e+00,3.848110751270753262e-32,1.940664385050844587e-31,4.005067106951810217e-21,6.526374461854971848e-11,4.336375545979494278e-08,2.411528419252662367e-05,3.387012850241750061e-04,9.927312999857870312e-04,2.563732517728482471e-03,4.997602001935623831e-03,8.897652277785016162e-03,1.489676662481505785e-02,2.516262015456787599e-02,3.571667100013784651e-02,4.530894982626532119e-02,5.302213321150611725e-02,5.888664383682197523e-02,6.453816956957207640e-02,6.936255937157741192e-02,7.376636767797252470e-02,7.779902047760803296e-02,8.168163741654475840e-02,8.519268266746432561e-02,8.856194495806739286e-02,9.173306589140070577e-02,9.469209155993923988e-02,9.754527068086221719e-02,1.002490798282649198e-01,1.027467184048796167e-01,1.051513825603809515e-01,1.073714772419237240e-01,1.094494099166906653e-01,1.113893892526902907e-01,1.131129650909164092e-01,1.147111651660740889e-01,1.161099984062817364e-01,1.173245262365588959e-01,1.183377470775257706e-01,1.191741606186170060e-01,1.197432643391510287e-01,1.201484250056334691e-01,1.203069523368820865e-01,1.202854418560616867e-01,1.200245549229042585e-01,1.195708804655142288e-01,1.189016758790520101e-01,1.180011234849340507e-01,1.168949093651928672e-01,1.156314246524692002e-01,1.141709204794531668e-01,1.125021768054068894e-01,1.106944749945131673e-01,1.087029331603043686e-01,1.066023624962009336e-01,1.043203913859600818e-01,1.018446214894224156e-01,9.921956118223515531e-02,9.648530843669390900e-02,9.353584675387675851e-02,9.051313761935868285e-02,8.725436152279024415e-02,8.380175093623588867e-02,8.010288142236386688e-02,7.616821734783911502e-02,7.188003474872137200e-02,6.740831988066876834e-02,6.219099224852965568e-02,5.601989851076585175e-02,4.935323207883009211e-02,4.037380673183112861e-02,3.070213931753377687e-02,2.060769815384735568e-02,1.239015420012204091e-02,7.595249963356717413e-03,4.717899233722969154e-03,2.261107916976118782e-03,7.599834447585736025e-04,2.230667771230533897e-04,1.321199717819018560e-05,6.211149253782071520e-08,2.217481354674097886e-08,8.287333374064516006e-19,0.000000000000000000e+00,0.000000000000000000e+00,0.000000000000000000e+00,0.000000000000000000e+00,0.000000000000000000e+00,0.000000000000000000e+00,0.000000000000000000e+00,0.000000000000000000e+00,0.000000000000000000e+00,nan
nan,0.000000000000000000e+00,0.000000000000000000e+00,0.000000000000000000e+00,0.000000000000000000e+00,0.000000000000000000e+00,0.000000000000000000e+00,0.000000000000000000e+00,0.000000000000000000e+00,0.000000000000000000e+00,9.831026554627642490e-32,1.924223260315854352e-17,2.145776723580398131e-08,1.070955718905531168e-07,1.324569458041551319e-05,4.154993440956593559e-04,1.293571577021747961e-03,3.233101234827632110e-03,6.120964106101689506e-03,1.005054995844766562e-02,1.729121767216589348e-02,2.819752625441120097e-02,3.910001493164334818e-02,4.757686828007225144e-02,5.451273080562844819e-02,6.020790700993750022e-02,6.533681999784167471e-02,6.997373946030319147e-02,7.420011232505910326e-02,7.805983832099221142e-02,8.167811604581717844e-02,8.506315312297801912e-02,8.824485805738582767e-02,9.124831141620420860e-02,9.403953323662665731e-02,9.667927769251505321e-02,9.915293689103897579e-02,1.015044990404623398e-01,1.036506810886445168e-01,1.057057006483578393e-01,1.075616885949949586e-01,1.092429804408099059e-01,1.107674482353291079e-01,1.121322653437743372e-01,1.132752048586733590e-01,1.142695729234069341e-01,1.150219727694758998e-01,1.156063777516545682e-01,1.159585879608977660e-01,1.161308452684930853e-01,1.160857014422656125e-01,1.158171341404548998e-01,1.154353598215197285e-01,1.147850294962723949e-01,1.138904594925402303e-01,1.128418787092862891e-01,1.116373121848668049e-01,1.102233477088741392e-01,1.086554485006713255e-01,1.069098903457845473e-01,1.050121554865333928e-01,1.029317709367144340e-01,1.006604120566838706e-01,9.824846826426036905e-02,9.568371897445565599e-02,9.292335717720978661e-02,9.004684254292108503e-02,8.698980818930979186e-02,8.373040191772902763e-02,8.018368277884713180e-02,7.650550397856768770e-02,7.248731110617298579e-02,6.795482019156867670e-02,6.334464693656023659e-02,5.789899372305344627e-02,5.146114880161890837e-02,4.382400022595284161e-02,3.420656023641746590e-02,2.394697245766940624e-02,1.449208116216682551e-02,9.182719053027872669e-03,5.392039471121655089e-03,3.107837589339681669e-03,1.348316889877867368e-03,2.426366315835192747e-04,5.975346589186850246e-05,2.161042571448726440e-07,3.642369719009296224e-10,1.899344590450653498e-12,1.962846410388272934e-24,2.606272886608420470e-28,0.000000000000000000e+00,0.000000000000000000e+00,0.000000000000000000e+00,0.000000000000000000e+00,0.000000000000000000e+00,0.000000000000000000e+00,0.000000000000000000e+00,0.000000000000000000e+00,nan
nan,0.000000000000000000e+00,0.000000000000000000e+00,0.000000000000000000e+00,0.000000000000000000e+00,0.000000000000000000e+00,0.000000000000000000e+00,0.000000000000000000e+00,0.000000000000000000e+00,0.000000000000000000e+00,5.208611667603017676e-34,1.677195952783943134e-22,2.830068171107967160e-15,5.607917229939952398e-11,3.288767197618291360e-06,7.050530237762387905e-05,4.910195028664062671e-04,1.892800404756533016e-03,4.057642161308435552e-03,7.405933903679126282e-03,1.277201483453983995e-02,2.084109429495571014e-02,3.077856692068567379e-02,4.143414918972039562e-02,4.893519251058800479e-02,5.528229656320596264e-02,6.092310333071851436e-02,6.589219169359106232e-02,7.021389164255703585e-02,7.415485403489419092e-02,7.793326417044710297e-02,8.132476231873664307e-02,8.454485607385964219e-02,8.756591591456369672e-02,9.036718268488266870e-02,9.297018233487201744e-02,9.545236528590458902e-02,9.769587227516082772e-02,9.987603102632501562e-02,1.018194827112195722e-01,1.036731278475764295e-01,1.053104449288370242e-01,1.067393313831724033e-01,1.080608698755526342e-01,1.091804646068517265e-01,1.101331370346360916e-01,1.108583834888736547e-01,1.114201943618261526e-01,1.117807714830483939e-01,1.119245257759950984e-01,1.118867959095790066e-01,1.116700171421397547e-01,1.112728701365273687e-01,1.106562535705194333e-01,1.097943386163045820e-01,1.087851483220262094e-01,1.076220084836736757e-01,1.062510438240502342e-01,1.047473615486247678e-01,1.030346353882212740e-01,1.011626168749563959e-01,9.909495857052261214e-02,9.693541221151073806e-02,9.455552087485237511e-02,9.196132959840400134e-02,8.933183580342403396e-02,8.644206980697941023e-02,8.329526634008796449e-02,7.999995298483723871e-02,7.641421512925206105e-02,7.249199967762642860e-02,6.838524563774581178e-02,6.368693724615386020e-02,5.868075049740753557e-02,5.284529260107018872e-02,4.556474268709406056e-02,3.739436601119155296e-02,2.616689112705191528e-02,1.728732639383677092e-02,9.509909969937637569e-03,6.319555768832163002e-03,3.990929992271179984e-03,1.784079589416695619e-03,9.573780880246714762e-04,6.724280371362564520e-05,3.929522086255264490e-06,2.442359728468348690e-08,1.624784228932982691e-14,1.112021691446438633e-21,2.597631171439180352e-24,0.000000000000000000e+00,0.000000000000000000e+00,0.000000000000000000e+00,0.000000000000000000e+00,0.000000000000000000e+00,0.000000000000000000e+00,0.000000000000000000e+00,0.000000000000000000e+00,0.000000000000000000e+00,nan
nan,0.000000000000000000e+00,0.000000000000000000e+00,0.000000000000000000e+00,0.000000000000000000e+00,0.000000000000000000e+00,0.000000000000000000e+00,0.000000000000000000e+00,0.000000000000000000e+00,0.000000000000000000e+00,6.174881613880943709e-34,9.678086121929111697e-25,1.098684962119559730e-16,1.643944617590708331e-08,7.590038515632925275e-08,6.038850148485981498e-05,1.522850172797361235e-04,7.944977673382089441e-04,2.293019976576309276e-03,4.513939732502688512e-03,8.271792346588055164e-03,1.352013252724468956e-02,2.365148594732688000e-02,3.278838723155620694e-02,4.236363773234184255e-02,4.978650511896717118e-02,5.574399893775789511e-02,6.135910297447673412e-02,6.590388304609608172e-02,6.997199446888949237e-02,7.384949753223699065e-02,7.734586418625002957e-02,8.063209456800374264e-02,8.364095292449358343e-02,8.650685391946369429e-02,8.916310348673964215e-02,9.164038229928167523e-02,9.387216986189383938e-02,9.597250140546614849e-02,9.789650068138719408e-02,9.967738501641382198e-02,1.012845609760466142e-01,1.027213937380516695e-01,1.039892830102346205e-01,1.050666203610756827e-01,1.059912600318973219e-01,1.066934624775237456e-01,1.072252333726896600e-01,1.075658925972688695e-01,1.077198369267070299e-01,1.076985259945625606e-01,1.074331348410020731e-01,1.070701876648122441e-01,1.064570022881553557e-01,1.056485153071688998e-01,1.046871501023374368e-01,1.035396547147043461e-01,1.022328294003920640e-01,1.007411644852475030e-01,9.907312516305896710e-02,9.719299878697336414e-02,9.519196149516756522e-02,9.300644223598245053e-02,9.068243225242295091e-02,8.813115803288437689e-02,8.537723403223849983e-02,8.251177613668317368e-02,7.940471046324931725e-02,7.600899231523575161e-02,7.229754111474646916e-02,6.831066832089477403e-02,6.390328974313981558e-02,5.911452948102026428e-02,5.356444145482041480e-02,4.686670781652831075e-02,3.894371771236684876e-02,2.860423578064436728e-02,1.958469812135547883e-02,1.103968627857699475e-02,7.228162567372445682e-03,4.439108992697430103e-03,2.215157967393648411e-03,9.113399251217545356e-04,1.951419484446642713e-04,2.326199388916906139e-05,5.033386792016297925e-08,7.133456306520675577e-11,4.444044136731729268e-11,4.886055374292313413e-25,7.977088130984002113e-36,2.455059806563765051e-36,0.000000000000000000e+00,0.000000000000000000e+00,0.000000000000000000e+00,0.000000000000000000e+00,0.000000000000000000e+00,0.000000000000000000e+00,0.000000000000000000e+00,0.000000000000000000e+00,nan
nan,0.000000000000000000e+00,0.000000000000000000e+00,0.000000000000000000e+00,0.000000000000000000e+00,0.000000000000000000e+00,0.000000000000000000e+00,0.000000000000000000e+00,0.000000000000000000e+00,0.000000000000000000e+00,0.000000000000000000e+00,2.110488057011387081e-35,4.339496497798664365e-16,1.766856725617340132e-11,5.270324742728847429e-07,6.349550825616337566e-06,3.953403345258832646e-05,3.058466239662206232e-04,1.244010752979484791e-03,2.658303099989621499e-03,5.496966807292121872e-03,9.209524819870369694e-03,1.536595702191739625e-02,2.402813687447848470e-02,3.425651108095398301e-02,4.299857518083451124e-02,4.996616165190707892e-02,5.592147809639989170e-02,6.108452772724601298e-02,6.545211483691543153e-02,6.936732259252463562e-02,7.310661253806745308e-02,7.638081086583317636e-02,7.957681924461999790e-02,8.239792867530773557e-02,8.513038321559400490e-02,8.761415990092588646e-02,8.982355853623021080e-02,9.190821253519097789e-02,9.380928996605231163e-02,9.561535789448961931e-02,9.718703613270231190e-02,9.856526246916691436e-02,9.981247987996007265e-02,1.008907124398183003e-01,1.017638576922724469e-01,1.024705931394588321e-01,1.029937834340398650e-01,1.033127143510610690e-01,1.034619967699558774e-01,1.034508394527238473e-01,1.031890083449181761e-01,1.028081847301249296e-01,1.022026876181644367e-01,1.014834669994580663e-01,1.005177486316100460e-01,9.941963464143187268e-02,9.809716440751638233e-02,9.664047838872183438e-02,9.500302762394947920e-02,9.313737431616941898e-02,9.111271114120489401e-02,8.895170659933174240e-02,8.656413673623788996e-02,8.401088960086863788e-02,8.131286944944265960e-02,7.838569257766343779e-02,7.508886094326452931e-02,7.160685812607310574e-02,6.778208336037028214e-02,6.365504153360274087e-02,5.898682979652812575e-02,5.348706231394839694e-02,4.750639360162047659e-02,3.981000971097578556e-02,3.016936960120958008e-02,1.958407213136414277e-02,1.255646963544097307e-02,7.330003394453211280e-03,4.236701016727858517e-03,2.427019299806942604e-03,8.846988842967415780e-04,1.579107854017560396e-04,2.711952686984857040e-05,6.675600255633354758e-07,4.950352639878876507e-09,9.566697734923488690e-10,3.502431086386550360e-24,4.831039025882620029e-36,0.000000000000000000e+00,0.000000000000000000e+00,0.000000000000000000e+00,0.000000000000000000e+00,0.000000000000000000e+00,0.000000000000000000e+00,0.000000000000000000e+00,0.000000000000000000e+00,0.000000000000000000e+00,0.000000000000000000e+00,nan
nan,0.000000000000000000e+00,0.000000000000000000e+00,0.000000000000000000e+00,0.000000000000000000e+00,0.000000000000000000e+00,0.000000000000000000e+00,0.000000000000000000e+00,0.000000000000000000e+00,0.000000000000000000e+00,0.000000000000000000e+00,9.820242282560932086e-35,5.704848245796501316e-23,1.854140237051712445e-11,1.322441196056965476e-10,1.177699610781505346e-07,7.674467481407765948e-06,7.337004226884486131e-05,4.109978642099677165e-04,1.339744855958104877e-03,3.406367282053126503e-03,5.907246634054177763e-03,1.059897757174189069e-02,1.586946362158844423e-02,2.434341494231012648e-02,3.341960995699271020e-02,4.262018178945183727e-02,4.960424881316077839e-02,5.533133045436480768e-02,6.007066569456220861e-02,6.462838003615739568e-02,6.838848711111299161e-02,7.185482719582544919e-02,7.513160290749469616e-02,7.813429571264017548e-02,8.080377405450953066e-02,8.333778049850938674e-02,8.558201672908297142e-02,8.769013312397722082e-02,8.964942532391367847e-02,9.137722896515781956e-02,9.295622048505447488e-02,9.436682775192367645e-02,9.553404702201344356e-02,9.658616457904811714e-02,9.745328982833414977e-02,9.815541723666856844e-02,9.866599688381198774e-02,9.898194184492602188e-02,9.914595705252081392e-02,9.907730203522743806e-02,9.886174699286695566e-02,9.848780218607425252e-02,9.794674535953926120e-02,9.716933422174342527e-02,9.623381382764170655e-02,9.514768399650901098e-02,9.386118612528890348e-02,9.241740239907629550e-02,9.076355060286694920e-02,8.891913821518840355e-02,8.691880135129376184e-02,8.470361476309479221e-02,8.235820450093876699e-02,7.978887404004569861e-02,7.696484182752845460e-02,7.394308701730215039e-02,7.056601483008570486e-02,6.684146181761918548e-02,6.291324254955731055e-02,5.817646423815511780e-02,5.323454963892580716e-02,4.673773343499837418e-02,4.014958073224490775e-02,3.100462564878147392e-02,2.148789380712589486e-02,1.350354873041021732e-02,8.153245567161383767e-03,5.164569460804836060e-03,2.504188644902513843e-03,8.299614612552520289e-04,2.294564535463399228e-04,4.583291755720603444e-05,9.721259371024214659e-07,3.156426237854182603e-07,3.700581283331670595e-13,2.492151731292108145e-19,1.256294435782149557e-28,3.004053712127842262e-36,0.000000000000000000e+00,0.000000000000000000e+00,0.000000000000000000e+00,0.000000000000000000e+00,0.000000000000000000e+00,0.000000000000000000e+00,0.000000000000000000e+00,0.000000000000000000e+00,0.000000000000000000e+00,0.000000000000000000e+00,nan
nan,0.000000000000000000e+00,0.000000000000000000e+00,0.000000000000000000e+00,0.000000000000000000e+00,0.000000000000000000e+00,0.000000000000000000e+00,0.000000000000000000e+00,0.000000000000000000e+00,0.000000000000000000e+00,0.000000000000000000e+00,0.000000000000000000e+00,3.736066315388391381e-23,1.325202503680054822e-18,2.139382254485910932e-12,3.248035207232158883e-08,3.589349491645801871e-08,1.547755465332696444e-05,2.037970542611928430e-04,5.207037935154552400e-04,1.460585429985463389e-03,3.978389671645808125e-03,7.309387581111678397e-03,1.140212409773311460e-02,1.669948514086005281e-02,2.409480084599895794e-02,3.328533869815193669e-02,4.153055216628018936e-02,4.842128533165129811e-02,5.421304322768667749e-02,5.900356751442968617e-02,6.329969819228958849e-02,6.687145527119957300e-02,7.037612801249085170e-02,7.338231872538630851e-02,7.630706892291910792e-02,7.883676315414511748e-02,8.114343616882167820e-02,8.327637968165284288e-02,8.521268027055349525e-02,8.700168014998180266e-02,8.855801841365913696e-02,8.995758984857099572e-02,9.116553332961761791e-02,9.216176302947588772e-02,9.303544003628111403e-02,9.372842604043217507e-02,9.419474413315295780e-02,9.454637359734294200e-02,9.467431224183386895e-02,9.464832665386122001e-02,9.445097254347115112e-02,9.407673937339938730e-02,9.346867774460880518e-02,9.274556217036558636e-02,9.184557779824970014e-02,9.072405392776719535e-02,8.947419135651399347e-02,8.797744592308168188e-02,8.626148388016190161e-02,8.445165977752028263e-02,8.246996731438879791e-02,8.021723559472693221e-02,7.780368674747223379e-02,7.516394867451380024e-02,7.227622549642442884e-02,6.906511948514075516e-02,6.554111717150241934e-02,6.170098607591156803e-02,5.725363730492576131e-02,5.239157797387049287e-02,4.605702071008108134e-02,3.909213331650740475e-02,3.042204815468795703e-02,2.322918934373739003e-02,1.584505783518083688e-02,9.689055389961931039e-03,5.616565443803745936e-03,3.367130600674210321e-03,1.629311617762199725e-03,4.004462516021869414e-04,2.700477636520082379e-05,7.073887103012325662e-06,1.497954106591921720e-07,5.806809325519499122e-10,2.129986410310394163e-18,3.753745062421174434e-27,0.000000000000000000e+00,0.000000000000000000e+00,0.000000000000000000e+00,0.000000000000000000e+00,0.000000000000000000e+00,0.000000000000000000e+00,0.000000000000000000e+00,0.000000000000000000e+00,0.000000000000000000e+00,0.000000000000000000e+00,0.000000000000000000e+00,0.000000000000000000e+00,nan
nan,0.000000000000000000e+00,0.000000000000000000e+00,0.000000000000000000e+00,0.000000000000000000e+00,0.000000000000000000e+00,0.000000000000000000e+00,0.000000000000000000e+00,0.000000000000000000e+00,0.000000000000000000e+00,0.000000000000000000e+00,0.000000000000000000e+00,2.722179294445996695e-34,1.018600606344282391e-24,2.814283899931860794e-17,2.660914582864040853e-12,4.641318829046590323e-11,5.348878010581498287e-07,2.136533124868783488e-05,2.602869717862446629e-04,1.063935858070355449e-03,2.483996086320918329e-03,4.761263056405905074e-03,7.848510768354091671e-03,1.112135257511661507e-02,1.585960011519088955e-02,2.364083772342041520e-02,3.265625282085058562e-02,4.044767227016422134e-02,4.705106572166899148e-02,5.270011949435260412e-02,5.708620311968690131e-02,6.151601093841185808e-02,6.514327424232815855e-02,6.825475536782295294e-02,7.138923893958165623e-02,7.403634664229911955e-02,7.642518441647100369e-02,7.855442166405285365e-02,8.055319828899584755e-02,8.233848208412625214e-02,8.395390009139323817e-02,8.531930136892178218e-02,8.658750657274572049e-02,8.761353625324316829e-02,8.843872857858703362e-02,8.911717893619852671e-02,8.966350162809261226e-02,8.996555276239326382e-02,9.010630432144844937e-02,9.005920366075073624e-02,8.985721228939962113e-02,8.941838156571491059e-02,8.890103772241431113e-02,8.811985093650182010e-02,8.718849707693875073e-02,8.606896890496226749e-02,8.480431280195517563e-02,8.333662523209456330e-02,8.167076597891792522e-02,7.977007704982577718e-02,7.770664151919066953e-02,7.543651772299893310e-02,7.290791558429746133e-02,7.013540067686671597e-02,6.702086184522368373e-02,6.371312609275081584e-02,5.994711651195173963e-02,5.581692292913509323e-02,5.088384001395386547e-02,4.534915110787049453e-02,3.757225043415712146e-02,2.929633027219826630e-02,2.007047567081635120e-02,1.440791511760783350e-02,9.325201214716079962e-03,6.390809197787827682e-03,4.139787484076433259e-03,2.001212663727653177e-03,8.623482774601592092e-04,1.988408089104389443e-04,9.250008236917496953e-06,2.222099999485968817e-07,3.021807997941351991e-10,2.518922247858793513e-18,5.136090343324422553e-27,3.695009745164605612e-27,0.000000000000000000e+00,0.000000000000000000e+00,0.000000000000000000e+00,0.000000000000000000e+00,0.000000000000000000e+00,0.000000000000000000e+00,0.000000000000000000e+00,0.000000000000000000e+00,0.000000000000000000e+00,0.000000000000000000e+00,0.000000000000000000e+00,0.000000000000000000e+00,nan
nan,0.000000000000000000e+00,0.000000000000000000e+00,0.000000000000000000e+00,0.000000000000000000e+00,0.000000000000000000e+00,0.000000000000000000e+00,0.000000000000000000e+00,0.000000000000000000e+00,0.000000000000000000e+00,0.000000000000000000e+00,0.000000000000000000e+00,2.128405103276600554e-38,7.321356565005722185e-38,1.425053104158719384e-25,7.958607887557078621e-17,7.813292244497562646e-16,2.810578518100156851e-08,3.074093707639201205e-06,7.770233013308124113e-05,4.196761433561963374e-04,1.431521265792155048e-03,3.022844965939221196e-03,4.839113585798585776e-03,7.524661344907515939e-03,1.000178856846290452e-02,1.521924232271023095e-02,2.283320206067848690e-02,3.044689305966995219e-02,3.813667267480500694e-02,4.471039273719550761e-02,5.042174166507307209e-02,5.494509389480536216e-02,5.917785073749945446e-02,6.261150561542319637e-02,6.595093494578961602e-02,6.878863276700213081e-02,7.135335920967059153e-02,7.357804623788560816e-02,7.565234467399283014e-02,7.743961893940798369e-02,7.906519699481769081e-02,8.049928347308880905e-02,8.177742772370064084e-02,8.278751076895730920e-02,8.365351965862674599e-02,8.439820712285257820e-02,8.489769075271455523e-02,8.516186173757836486e-02,8.534307989437169006e-02,8.531458650981336989e-02,8.504224264497269037e-02,8.465908366657053097e-02,8.410351763592574525e-02,8.335767579564659635e-02,8.233730110587539341e-02,8.127272855589828815e-02,7.987130399775912992e-02,7.841409273568723803e-02,7.672909961168025705e-02,7.476392591232493279e-02,7.264008923365751491e-02,7.032614548868440507e-02,6.761849443876977173e-02,6.474313399244778500e-02,6.135230128545177131e-02,5.771307187132797278e-02,5.364415901459117925e-02,4.906803139875513114e-02,4.312456068397965692e-02,3.645634077583020938e-02,2.761965079193452050e-02,1.830746505752126746e-02,1.197986683704044091e-02,8.175968726860877514e-03,6.209297915156780125e-03,3.997159180230270073e-03,2.433358203565767156e-03,8.735783683182743887e-04,6.040141017997621362e-04,4.347770797462711522e-05,1.552468809789392777e-06,8.666655112587936978e-08,3.963495518512043137e-14,1.662074679311513167e-16,8.828194065406405763e-40,0.000000000000000000e+00,0.000000000000000000e+00,0.000000000000000000e+00,0.000000000000000000e+00,0.000000000000000000e+00,0.000000000000000000e+00,0.000000000000000000e+00,0.000000000000000000e+00,0.000000000000000000e+00,0.000000000000000000e+00,0.000000000000000000e+00,0.000000000000000000e+00,0.000000000000000000e+00,nan
nan,0.000000000000000000e+00,0.000000000000000000e+00,0.000000000000000000e+00,0.000000000000000000e+00,0.000000000000000000e+00,0.000000000000000000e+00,0.000000000000000000e+00,0.000000000000000000e+00,0.000000000000000000e+00,0.000000000000000000e+00,0.000000000000000000e+00,0.000000000000000000e+00,1.132691626000479056e-39,9.219799999695060442e-36,4.282546927702626861e-24,3.741995959016835654e-16,4.911172954838386734e-11,6.639587326145901961e-07,1.006849629535173132e-05,1.081323071297907710e-04,5.661178126816243487e-04,1.567906885214779070e-03,2.941604119946697980e-03,4.959181261340560309e-03,7.176423376719205660e-03,9.857411069430412759e-03,1.440334899649533228e-02,2.178875769465313250e-02,2.928215954282685496e-02,3.532553375105784710e-02,4.170265488124087760e-02,4.711682766653801924e-02,5.192361071218876134e-02,5.640767686915073437e-02,5.970340351030715975e-02,6.300068907764071191e-02,6.570188319954389788e-02,6.815544219041402840e-02,7.030406794061774822e-02,7.223543633343794401e-02,7.392188935794125060e-02,7.534229882533791112e-02,7.660018178966662705e-02,7.766380324814811664e-02,7.858546463212542910e-02,7.932835606088184388e-02,7.982597231450228037e-02,8.014785815698519111e-02,8.026208224399064561e-02,8.023735053359780378e-02,8.006369350109976413e-02,7.958651950099848715e-02,7.904095066985243612e-02,7.828418378066828720e-02,7.725976791753877415e-02,7.611510964991280437e-02,7.479552192313793091e-02,7.310770320013169898e-02,7.127983134866498760e-02,6.933569527955463219e-02,6.708689779398760433e-02,6.468679852414983833e-02,6.184373306716381413e-02,5.844367083513203609e-02,5.484100941804945228e-02,5.070794134505806489e-02,4.633167157101961142e-02,4.015593745796298270e-02,3.377202497983617518e-02,2.617148076834441631e-02,1.793580438151751513e-02,1.248562183312617625e-02,8.215049479831437046e-03,5.657765769586907585e-03,3.765957497093958342e-03,2.397280909894832120e-03,1.072356914362697540e-03,3.564284270611555328e-04,5.707677121903308035e-05,3.003158823003741475e-06,2.523899271825142378e-08,1.202953904959180075e-09,9.595040345356565768e-18,2.126175991620520672e-26,9.643864254727102103e-40,0.000000000000000000e+00,0.000000000000000000e+00,0.000000000000000000e+00,0.000000000000000000e+00,0.000000000000000000e+00,0.000000000000000000e+00,0.000000000000000000e+00,0.000000000000000000e+00,0.000000000000000000e+00,0.000000000000000000e+00,0.000000000000000000e+00,0.000000000000000000e+00,0.000000000000000000e+00,nan
nan,0.000000000000000000e+00,0.000000000000000000e+00,0.000000000000000000e+00,0.000000000000000000e+00,0.000000000000000000e+00,0.000000000000000000e+00,0.000000000000000000e+00,0.000000000000000000e+00,0.000000000000000000e+00,0.000000000000000000e+00,0.000000000000000000e+00,0.000000000000000000e+00,0.000000000000000000e+00,5.214844143807784000e-36,6.282062343685872655e-24,2.113684828994795873e-23,6.148842698776426100e-16,1.186587130523284763e-08,9.882751027724417698e-07,3.881114800978530723e-05,2.663898276776734283e-04,7.707023062141383097e-04,1.661704986788633620e-03,3.217416018652735459e-03,4.826760398596660270e-03,7.039895134260631265e-03,1.069984836322101368e-02,1.521464846263891578e-02,1.966535180506302771e-02,2.463273581130422107e-02,3.165090534825019952e-02,3.753984771924547686e-02,4.346517663156040934e-02,4.864505592301957004e-02,5.295021846280272004e-02,5.650468392706800569e-02,5.952449260021364791e-02,6.201569895167009794e-02,6.441121782314854216e-02,6.649020018128058707e-02,6.832701951235363447e-02,6.970455298667231625e-02,7.116802638175009910e-02,7.228171037439452828e-02,7.322492539787836541e-02,7.388306745673414722e-02,7.443982215216166098e-02,7.477977928229834204e-02,7.496799739992598965e-02,7.492000269693718795e-02,7.471144986872987892e-02,7.426925301654895006e-02,7.361556774758008792e-02,7.272535149281014744e-02,7.172713058018619081e-02,7.065517883661893983e-02,6.914047287445411472e-02,6.753143218775996270e-02,6.554953213811139101e-02,6.328550003858436634e-02,6.084815636023591795e-02,5.816781983443106846e-02,5.491978955997599277e-02,5.135081837792759146e-02,4.694067156086695336e-02,4.173579299358573524e-02,3.683168721044010469e-02,2.951888722404214654e-02,2.276062136852594064e-02,1.574426103866104557e-02,1.094573072681183888e-02,7.760166854113594720e-03,5.723693475604803120e-03,3.712967292168085475e-03,2.131616548958127459e-03,1.180031835835590849e-03,3.228150918979695995e-04,1.081669042454909787e-04,2.067551795798615080e-05,1.151552490758395758e-06,1.169905747037898316e-11,6.261039885722796261e-17,3.799878269510361786e-25,1.945428838345411722e-37,0.000000000000000000e+00,0.000000000000000000e+00,0.000000000000000000e+00,0.000000000000000000e+00,0.000000000000000000e+00,0.000000000000000000e+00,0.000000000000000000e+00,0.000000000000000000e+00,0.000000000000000000e+00,0.000000000000000000e+00,0.000000000000000000e+00,0.000000000000000000e+00,0.000000000000000000e+00,0.000000000000000000e+00,nan
nan,0.000000000000000000e+00,0.000000000000000000e+00,0.000000000000000000e+00,0.000000000000000000e+00,0.000000000000000000e+00,0.000000000000000000e+00,0.000000000000000000e+00,0.000000000000000000e+00,0.000000000000000000e+00,0.000000000000000000e+00,0.000000000000000000e+00,0.000000000000000000e+00,0.000000000000000000e+00,0.000000000000000000e+00,0.000000000000000000e+00,5.205488149303977674e-35,6.709062522423560552e-17,9.675685721220617979e-10,1.046076252309009058e-08,4.413335814705081509e-06,1.778426020008690788e-05,3.129844504152538517e-04,8.478277860203515615e-04,1.647477118014862045e-03,2.920484829604203143e-03,4.248555219106643632e-03,7.156750112080076907e-03,9.842626838579478579e-03,1.181156980783329077e-02,1.502787956907505537e-02,2.027887963764017643e-02,2.589082803199885263e-02,3.297376761085171054e-02,3.917986993604453960e-02,4.411502859315898778e-02,4.874162087370299823e-02,5.208627880990956971e-02,5.518641204423058166e-02,5.771361169226105203e-02,6.017237759715258344e-02,6.206396721979999531e-02,6.354587497198503632e-02,6.510320565202723508e-02,6.637921784236958112e-02,6.733347658954612347e-02,6.812999856068821525e-02,6.869604774968957051e-02,6.899623870574755902e-02,6.912480889087285751e-02,6.919759563501540200e-02,6.895049889786523944e-02,6.836040902514592399e-02,6.778990670592915935e-02,6.693367866203793481e-02,6.578873300317997219e-02,6.451733871370939066e-02,6.292371826864515127e-02,6.113171291694667608e-02,5.898079180682697098e-02,5.658301237946598838e-02,5.371741665170396557e-02,5.008225905742103717e-02,4.663331138563936440e-02,4.266550464947489046e-02,3.758369909972170825e-02,3.145681020375000470e-02,2.387748599933507340e-02,1.741060757195087710e-02,1.258705970901358856e-02,1.013414504150656273e-02,6.891813507832774202e-03,5.062002103359494048e-03,3.246274867024468228e-03,1.720576011860295434e-03,7.367227845675131549e-04,3.793354605423565964e-04,4.732053643471374147e-05,1.357090735920774676e-05,3.078591102237090307e-07,8.060886730758577538e-09,9.461214268254252718e-13,5.207835772805400936e-25,1.792842003030738065e-26,0.000000000000000000e+00,0.000000000000000000e+00,0.000000000000000000e+00,0.000000000000000000e+00,0.000000000000000000e+00,0.000000000000000000e+00,0.000000000000000000e+00,0.000000000000000000e+00,0.000000000000000000e+00,0.000000000000000000e+00,0.000000000000000000e+00,0.000000000000000000e+00,0.000000000000000000e+00,0.000000000000000000e+00,0.000000000000000000e+00,nan
nan,0.000000000000000000e+00,0.000000000000000000e+00,0.000000000000000000e+00,0.000000000000000000e+00,0.000000000000000000e+00,0.000000000000000000e+00,0.000000000000000000e+00,0.000000000000000000e+00,0.000000000000000000e+00,0.000000000000000000e+00,0.000000000000000000e+00,0.000000000000000000e+00,0.000000000000000000e+00,0.000000000000000000e+00,0.000000000000000000e+00,1.719337665580151096e-26,3.645400950378487061e-38,3.197756436794052716e-18,2.033111927436951855e-14,9.249636639113576965e-10,4.358127516568869244e-07,4.190920412380443565e-05,3.272264688471260134e-04,5.885660331474285977e-04,1.439484381824195948e-03,2.253661158006200257e-03,4.075181589558907538e-03,6.018652123237024955e-03,7.353488583425474637e-03,8.928591931232682591e-03,1.126943735362923200e-02,1.607890525397314557e-02,2.240418734513485721e-02,2.803158378144107732e-02,3.346104753006143295e-02,3.831669912658929034e-02,4.327898471608312980e-02,4.642324952555722251e-02,4.995386483031760000e-02,5.231156417729419111e-02,5.478162314921690423e-02,5.686386721862447119e-02,5.832136393546916153e-02,5.972208964301910228e-02,6.077542904028279680e-02,6.166397077899935658e-02,6.218767266535692173e-02,6.256807752855134130e-02,6.266463386627857401e-02,6.262850655651178156e-02,6.232192815695704324e-02,6.199351979126348222e-02,6.129194891384666388e-02,6.009504049520808522e-02,5.893314542297152514e-02,5.740741769216312768e-02,5.576784865046828521e-02,5.397813292514436201e-02,5.142730817918450548e-02,4.854124974383437763e-02,4.507271046565617528e-02,4.134845662609989980e-02,3.719912874713216661e-02,3.172969925724050677e-02,2.570189886311630492e-02,2.057210519815930172e-02,1.468495327089328756e-02,1.054866251696605015e-02,7.515345195060349481e-03,5.484091139072686492e-03,4.131320482471951237e-03,2.812707751381341922e-03,1.729947291438259935e-03,5.225939654706162306e-04,1.232781216588756763e-04,1.241813574874369094e-05,1.746878942565681519e-05,2.376537809982332859e-08,1.307375929987886835e-11,1.055269313591535582e-16,1.353445234461148965e-18,2.177991974437113901e-25,4.918855574031386847e-38,0.000000000000000000e+00,0.000000000000000000e+00,0.000000000000000000e+00,0.000000000000000000e+00,0.000000000000000000e+00,0.000000000000000000e+00,0.000000000000000000e+00,0.000000000000000000e+00,0.000000000000000000e+00,0.000000000000000000e+00,0.000000000000000000e+00,0.000000000000000000e+00,0.000000000000000000e+00,0.000000000000000000e+00,0.000000000000000000e+00,nan
nan,0.000000000000000000e+00,0.000000000000000000e+00,0.000000000000000000e+00,0.000000000000000000e+00,0.000000000000000000e+00,0.000000000000000000e+00,0.000000000000000000e+00,0.000000000000000000e+00,0.000000000000000000e+00,0.000000000000000000e+00,0.000000000000000000e+00,0.000000000000000000e+00,0.000000000000000000e+00,0.000000000000000000e+00,0.000000000000000000e+00,0.000000000000000000e+00,0.000000000000000000e+00,1.224145880516300124e-30,3.266022306159479323e-20,1.067562784409561487e-13,3.103496440205605198e-06,3.324986411863850232e-06,3.173060899956929598e-05,1.050684397793454994e-04,2.833554365688241688e-04,9.090927600015626759e-04,2.107198014830290872e-03,3.037080956207546464e-03,4.153172980223810221e-03,5.588866566468640718e-03,7.279606947602176512e-03,9.031187372232359067e-03,1.266892166805097877e-02,1.667883766465194303e-02,2.137608977670212712e-02,2.713018598154593244e-02,3.199742071502187368e-02,3.660278750502461015e-02,4.042791650775327816e-02,4.364793031457285533e-02,4.611385150209486306e-02,4.836708473468079306e-02,5.072439944718457050e-02,5.183782191154438085e-02,5.341606410171697433e-02,5.418127491911035876e-02,5.466948704385088398e-02,5.479903612792449280e-02,5.557496564408646866e-02,5.505085540759217105e-02,5.507939326253209061e-02,5.467179473291439162e-02,5.358314319135732556e-02,5.243773280007289067e-02,5.080273026265914177e-02,4.945994995860233251e-02,4.735165124973461648e-02,4.505732573185647349e-02,4.176372916496248755e-02,3.789483381249458827e-02,3.384052964329512664e-02,2.993046555850347595e-02,2.578522219568363943e-02,2.060699240791931050e-02,1.508558055524492937e-02,1.182625277820267828e-02,9.572409162412150174e-03,6.059613902378678009e-03,4.346359186933764635e-03,2.842970614905241528e-03,1.826759648662956747e-03,1.020537925522624215e-03,3.027382813397934088e-04,6.874499755162820629e-05,4.044735105832445529e-06,6.114201127275607642e-08,6.409633155226405346e-10,4.163027432178338653e-10,2.335818889967161636e-20,3.334599301641353142e-18,5.984215830601951289e-37,0.000000000000000000e+00,0.000000000000000000e+00,0.000000000000000000e+00,0.000000000000000000e+00,0.000000000000000000e+00,0.000000000000000000e+00,0.000000000000000000e+00,0.000000000000000000e+00,0.000000000000000000e+00,0.000000000000000000e+00,0.000000000000000000e+00,0.000000000000000000e+00,0.000000000000000000e+00,0.000000000000000000e+00,0.000000000000000000e+00,0.000000000000000000e+00,0.000000000000000000e+00,nan
nan,0.000000000000000000e+00,0.000000000000000000e+00,0.000000000000000000e+00,0.000000000000000000e+00,0.000000000000000000e+00,0.000000000000000000e+00,0.000000000000000000e+00,0.000000000000000000e+00,0.000000000000000000e+00,0.000000000000000000e+00,0.000000000000000000e+00,0.000000000000000000e+00,0.000000000000000000e+00,0.000000000000000000e+00,0.000000000000000000e+00,0.000000000000000000e+00,0.000000000000000000e+00,0.000000000000000000e+00,8.675044250535835368e-30,3.483612541169432961e-14,3.545344122143502881e-11,2.761081777588382440e-10,1.192356560398532158e-06,4.075106496646839266e-05,3.197824988612381483e-05,1.798528393193066406e-04,4.106214838954551838e-04,8.366315633281233045e-04,1.745364210218814695e-03,2.676946444289014793e-03,4.146026027592061153e-03,5.612107833496006448e-03,7.358899609905482364e-03,9.316632389973843187e-03,1.218044601926521892e-02,1.615960393019224769e-02,1.989950198454685029e-02,2.413556332810401842e-02,2.925390796115641748e-02,3.236674133665237707e-02,3.490625788775682942e-02,3.811642807878100336e-02,4.044742428714830085e-02,4.259702765875744007e-02,4.424166632578074160e-02,4.517251417165120408e-02,4.609763969206756573e-02,4.640706584319924388e-02,4.666601426966873745e-02,4.632479616103601927e-02,4.614243721772934292e-02,4.533611107174193022e-02,4.452565268723798764e-02,4.291391756997918472e-02,4.112720724753457513e-02,3.910739024365518512e-02,3.668895671616445586e-02,3.354608209681322895e-02,2.969436483245172648e-02,2.550608237001121548e-02,2.182774624831757687e-02,1.825215636540532607e-02,1.595107033031178956e-02,1.296918906846039957e-02,9.821980147881107653e-03,7.781193671813907073e-03,5.650349782721503754e-03,3.708086917006074568e-03,2.106993965661560844e-03,1.043722097419623983e-03,5.266552136326891264e-04,3.004336704540732424e-04,1.027585177804034945e-04,5.207785015101499843e-06,8.272643832420843473e-08,3.853872937798681768e-11,2.139731872304949279e-11,2.822917193635178415e-14,5.781787036274599903e-26,8.853632095041264925e-38,0.000000000000000000e+00,0.000000000000000000e+00,0.000000000000000000e+00,0.000000000000000000e+00,0.000000000000000000e+00,0.000000000000000000e+00,0.000000000000000000e+00,0.000000000000000000e+00,0.000000000000000000e+00,0.000000000000000000e+00,0.000000000000000000e+00,0.000000000000000000e+00,0.000000000000000000e+00,0.000000000000000000e+00,0.000000000000000000e+00,0.000000000000000000e+00,0.000000000000000000e+00,0.000000000000000000e+00,nan
nan,0.000000000000000000e+00,0.000000000000000000e+00,0.000000000000000000e+00,0.000000000000000000e+00,0.000000000000000000e+00,0.000000000000000000e+00,0.000000000000000000e+00,0.000000000000000000e+00,0.000000000000000000e+00,0.000000000000000000e+00,0.000000000000000000e+00,0.000000000000000000e+00,0.000000000000000000e+00,0.000000000000000000e+00,0.000000000000000000e+00,0.000000000000000000e+00,0.000000000000000000e+00,0.000000000000000000e+00,5.007462796301903799e-33,3.289599528985479266e-22,3.511077406542744971e-11,2.392698901389208343e-11,2.244284955361034845e-09,7.449579320899273812e-08,3.087338361551471911e-07,1.860099299137248948e-05,5.195383291066578722e-05,1.641706497749113077e-04,3.441983386757126238e-04,1.093688035105584017e-03,2.026830726237786352e-03,3.008733240162196967e-03,4.100045652412944060e-03,5.693764680963559442e-03,7.490380759907278203e-03,9.306465645654899213e-03,1.193114595721855159e-02,1.331619141203848992e-02,1.651647048420099018e-02,1.904721200002935932e-02,2.188520913734393752e-02,2.467906922991563307e-02,2.777007420278465588e-02,3.058256538856499174e-02,3.282919344056936528e-02,3.436283145453029875e-02,3.483772067171531095e-02,3.531133225842565670e-02,3.537329913828865524e-02,3.523832758669947357e-02,3.550863052688466720e-02,3.475652721882063756e-02,3.286943813383110674e-02,3.081854702072339691e-02,2.872135427957811862e-02,2.677944626553386068e-02,2.450347573579202132e-02,2.107117879050897716e-02,1.802499860929167308e-02,1.463523123740187795e-02,1.366128391479872264e-02,1.090743630646146510e-02,9.659102438839155258e-03,7.968517468052193839e-03,6.285526009669385565e-03,4.602292370641041311e-03,3.065723367646618243e-03,1.744192724714283254e-03,8.788079297920933656e-04,2.571581748171968581e-04,1.136481172790692077e-04,1.365618513211976757e-05,1.592635008452250443e-05,4.321773821117276281e-09,5.366199453386894836e-13,1.367440135408439207e-15,4.205255450464360257e-23,2.405521027587341028e-34,1.599880323884374764e-35,5.704647440493541495e-37,0.000000000000000000e+00,0.000000000000000000e+00,0.000000000000000000e+00,0.000000000000000000e+00,0.000000000000000000e+00,0.000000000000000000e+00,0.000000000000000000e+00,0.000000000000000000e+00,0.000000000000000000e+00,0.000000000000000000e+00,0.000000000000000000e+00,0.000000000000000000e+00,0.000000000000000000e+00,0.000000000000000000e+00,0.000000000000000000e+00,0.000000000000000000e+00,0.000000000000000000e+00,0.000000000000000000e+00,nan
nan,0.000000000000000000e+00,0.000000000000000000e+00,0.000000000000000000e+00,0.000000000000000000e+00,0.000000000000000000e+00,0.000000000000000000e+00,0.000000000000000000e+00,0.000000000000000000e+00,0.000000000000000000e+00,0.000000000000000000e+00,0.000000000000000000e+00,0.000000000000000000e+00,0.000000000000000000e+00,0.000000000000000000e+00,0.000000000000000000e+00,0.000000000000000000e+00,0.000000000000000000e+00,0.000000000000000000e+00,0.000000000000000000e+00,0.000000000000000000e+00,4.270502441844578814e-22,1.533825202916227511e-16,3.674073685336613545e-15,7.357887984235458034e-11,8.712419630959980939e-10,5.008759404610088107e-07,4.084814138147711200e-06,1.525131592376846751e-05,4.982274696131015919e-05,1.792851588137433811e-04,3.909845882892603870e-04,1.074389975842061050e-03,1.861772185355403588e-03,3.036229761618299775e-03,4.310026558361988377e-03,5.493349975755372136e-03,6.661103087656684678e-03,7.815387767329005919e-03,9.700818150453335495e-03,1.151708056789324877e-02,1.154874575831574615e-02,1.297500271999272974e-02,1.451176958765293401e-02,1.730907579711402078e-02,1.947619335022663170e-02,1.988564287861787142e-02,2.177719937006309878e-02,2.247813536769329573e-02,2.359768598512052007e-02,2.338820226188704360e-02,2.187614756878767872e-02,2.118406824447945092e-02,1.885782910428487891e-02,1.837498978966492502e-02,1.604187008079251131e-02,1.460800685020117833e-02,1.201660226150851225e-02,1.155166178030079746e-02,9.514941472984520324e-03,8.388102885061388472e-03,8.175382684813294748e-03,6.146030308800613795e-03,5.490022318328324422e-03,4.759960647974371788e-03,3.715168267774802361e-03,2.419259598633003404e-03,1.155117735121920577e-03,5.196574020313300766e-04,1.281776546206614864e-04,4.653587820918720307e-05,4.235077576589252324e-06,1.051747429812585304e-07,1.584096759678801302e-10,1.107431693122737560e-09,7.280374121113027620e-19,3.287917849128976575e-23,8.454057643963814566e-29,2.293669076070414853e-34,0.000000000000000000e+00,0.000000000000000000e+00,0.000000000000000000e+00,0.000000000000000000e+00,0.000000000000000000e+00,0.000000000000000000e+00,0.000000000000000000e+00,0.000000000000000000e+00,0.000000000000000000e+00,0.000000000000000000e+00,0.000000000000000000e+00,0.000000000000000000e+00,0.000000000000000000e+00,0.000000000000000000e+00,0.000000000000000000e+00,0.000000000000000000e+00,0.000000000000000000e+00,0.000000000000000000e+00,0.000000000000000000e+00,0.000000000000000000e+00,nan
nan,0.000000000000000000e+00,0.000000000000000000e+00,0.000000000000000000e+00,0.000000000000000000e+00,0.000000000000000000e+00,0.000000000000000000e+00,0.000000000000000000e+00,0.000000000000000000e+00,0.000000000000000000e+00,0.000000000000000000e+00,0.000000000000000000e+00,0.000000000000000000e+00,0.000000000000000000e+00,0.000000000000000000e+00,0.000000000000000000e+00,0.000000000000000000e+00,0.000000000000000000e+00,0.000000000000000000e+00,0.000000000000000000e+00,0.000000000000000000e+00,1.315719971548534699e-22,1.762554464381996803e-23,3.433525426697666635e-22,3.804277657010073487e-11,3.472327530536808992e-10,4.063838141189497846e-08,2.052462280383926665e-10,1.236647867706832839e-07,2.634777974204219745e-06,1.111356834696576149e-05,5.426154315337035816e-05,3.494727953443817485e-04,1.008223702448844683e-03,1.033892375359667841e-03,2.125437782677157880e-03,2.400160254328603457e-03,3.136099449214696522e-03,3.947200332807073234e-03,5.084346980789170370e-03,5.899576733841436528e-03,6.580987879479321782e-03,6.891289629777933023e-03,8.559888582133159257e-03,8.534815582202563353e-03,9.809346133268000839e-03,1.079833850796638531e-02,1.062104877487670199e-02,1.240758893389039969e-02,1.246074162294366801e-02,1.176243183639168188e-02,1.192959965375760267e-02,1.059651846970351315e-02,9.493829602283331351e-03,8.950294968247509211e-03,8.302273199161384204e-03,7.542825096819884972e-03,6.531576473056291930e-03,6.052833071948831092e-03,5.478134030745677660e-03,4.780233319667564172e-03,3.831335195075418875e-03,3.305528591195047196e-03,2.675390959819538231e-03,2.174625194475553192e-03,1.754634504036502131e-03,8.427388731879300503e-04,4.644421613201007472e-04,5.121618798625533851e-05,2.088146497235544413e-05,5.324104614317941007e-06,1.235660131476684084e-06,1.374901654011997390e-09,4.020958039577898723e-11,6.182680097603220179e-17,2.975454600221939905e-19,1.725077860095270470e-28,8.700565223140869938e-29,0.000000000000000000e+00,0.000000000000000000e+00,0.000000000000000000e+00,0.000000000000000000e+00,0.000000000000000000e+00,0.000000000000000000e+00,0.000000000000000000e+00,0.000000000000000000e+00,0.000000000000000000e+00,0.000000000000000000e+00,0.000000000000000000e+00,0.000000000000000000e+00,0.000000000000000000e+00,0.000000000000000000e+00,0.000000000000000000e+00,0.000000000000000000e+00,0.000000000000000000e+00,0.000000000000000000e+00,0.000000000000000000e+00,0.000000000000000000e+00,0.000000000000000000e+00,nan
nan,0.000000000000000000e+00,0.000000000000000000e+00,0.000000000000000000e+00,0.000000000000000000e+00,0.000000000000000000e+00,0.000000000000000000e+00,0.000000000000000000e+00,0.000000000000000000e+00,0.000000000000000000e+00,0.000000000000000000e+00,0.000000000000000000e+00,0.000000000000000000e+00,0.000000000000000000e+00,0.000000000000000000e+00,0.000000000000000000e+00,0.000000000000000000e+00,0.000000000000000000e+00,0.000000000000000000e+00,0.000000000000000000e+00,0.000000000000000000e+00,0.000000000000000000e+00,0.000000000000000000e+00,6.413998246382722960e-23,9.701182665680799169e-23,8.314775507751004703e-15,2.268301475792899804e-15,2.079981281474625323e-10,2.697311222216246632e-10,1.256042731313758047e-08,2.728316303864215511e-08,2.001535124892462033e-06,4.610914856916548978e-05,1.162172675695161876e-04,1.961374432868234091e-04,4.926676977454684091e-04,7.393785075842602755e-04,1.220446252539855812e-03,1.421722155691979971e-03,1.983818551661449200e-03,2.357930715007663589e-03,2.835538510269549131e-03,3.288103141640180173e-03,3.873048118977723102e-03,4.099396750309713608e-03,4.623374152744750415e-03,5.376980833091234840e-03,6.225926517143339986e-03,6.258901939580351764e-03,6.218329788297413327e-03,6.007440926342262622e-03,5.502927517231556535e-03,5.445021326525401745e-03,4.528429152167914168e-03,4.788875294401907963e-03,4.727036186869025026e-03,3.967177060155281480e-03,3.584317603327874698e-03,3.383091760813191923e-03,2.772368626492023504e-03,2.457336503808952959e-03,2.057692126937835531e-03,1.682977990285666400e-03,1.095002575082195057e-03,6.984042917131873685e-04,4.999033846523242078e-04,2.783061853383540676e-04,1.188022359158520989e-04,1.144954319131627946e-05,2.015444731316649883e-07,7.936994497167502072e-07,7.520302626398172399e-12,8.239588600626627515e-13,1.295333260013924070e-18,6.809143772664983752e-23,1.865280541155759051e-33,0.000000000000000000e+00,0.000000000000000000e+00,0.000000000000000000e+00,0.000000000000000000e+00,0.000000000000000000e+00,0.000000000000000000e+00,0.000000000000000000e+00,0.000000000000000000e+00,0.000000000000000000e+00,0.000000000000000000e+00,0.000000000000000000e+00,0.000000000000000000e+00,0.000000000000000000e+00,0.000000000000000000e+00,0.000000000000000000e+00,0.000000000000000000e+00,0.000000000000000000e+00,0.000000000000000000e+00,0.000000000000000000e+00,0.000000000000000000e+00,0.000000000000000000e+00,0.000000000000000000e+00,0.000000000000000000e+00,nan
nan,0.000000000000000000e+00,0.000000000000000000e+00,0.000000000000000000e+00,0.000000000000000000e+00,0.000000000000000000e+00,0.000000000000000000e+00,0.000000000000000000e+00,0.000000000000000000e+00,0.000000000000000000e+00,0.000000000000000000e+00,0.000000000000000000e+00,0.000000000000000000e+00,0.000000000000000000e+00,0.000000000000000000e+00,0.000000000000000000e+00,0.000000000000000000e+00,0.000000000000000000e+00,0.000000000000000000e+00,0.000000000000000000e+00,0.000000000000000000e+00,0.000000000000000000e+00,0.000000000000000000e+00,0.000000000000000000e+00,0.000000000000000000e+00,2.371735738495566767e-30,5.132939375297845139e-23,2.629214474697871019e-21,5.553319344036440522e-15,3.686311121016109665e-12,4.713318237508266703e-12,1.102157580891711103e-08,2.326859135496304401e-07,4.707806391747631988e-07,6.439145023964696256e-06,3.367787295228223394e-05,6.445006862343823876e-05,1.715424963372876813e-04,4.754525979100729209e-04,6.028695272746918080e-04,6.847878814230262158e-04,1.081338883876007805e-03,1.230732200449672275e-03,1.502876150372772172e-03,1.633790940592303679e-03,2.012439643337500875e-03,2.366162997493506410e-03,2.934356504720558693e-03,2.579783616825617049e-03,2.635013859923830346e-03,2.860617844838891314e-03,2.450617298280981064e-03,2.244206416432940106e-03,1.904720672885981247e-03,2.078600271746502796e-03,1.983508417218636088e-03,1.830215105713813408e-03,1.457597544380225506e-03,1.333565549291176010e-03,1.150422834226005886e-03,8.219752673860984682e-04,6.125928591314797359e-04,6.251459138649789358e-04,1.988022913039869121e-04,1.446360257566404344e-04,7.328414556649214028e-05,2.283681714364187444e-05,2.386203807494736763e-06,2.174781747597359908e-07,1.553391201884171561e-07,5.590589241371718014e-16,8.072497847160561774e-18,3.918374213547582024e-26,1.649118504404260382e-27,1.360041992600898836e-27,2.756951939034633306e-35,0.000000000000000000e+00,0.000000000000000000e+00,0.000000000000000000e+00,0.000000000000000000e+00,0.000000000000000000e+00,0.000000000000000000e+00,0.000000000000000000e+00,0.000000000000000000e+00,0.000000000000000000e+00,0.000000000000000000e+00,0.000000000000000000e+00,0.000000000000000000e+00,0.000000000000000000e+00,0.000000000000000000e+00,0.000000000000000000e+00,0.000000000000000000e+00,0.000000000000000000e+00,0.000000000000000000e+00,0.000000000000000000e+00,0.000000000000000000e+00,0.000000000000000000e+00,0.000000000000000000e+00,0.000000000000000000e+00,nan
nan,0.000000000000000000e+00,0.000000000000000000e+00,0.000000000000000000e+00,0.000000000000000000e+00,0.000000000000000000e+00,0.000000000000000000e+00,0.000000000000000000e+00,0.000000000000000000e+00,0.000000000000000000e+00,0.000000000000000000e+00,0.000000000000000000e+00,0.000000000000000000e+00,0.000000000000000000e+00,0.000000000000000000e+00,0.000000000000000000e+00,0.000000000000000000e+00,0.000000000000000000e+00,0.000000000000000000e+00,0.000000000000000000e+00,0.000000000000000000e+00,0.000000000000000000e+00,0.000000000000000000e+00,0.000000000000000000e+00,0.000000000000000000e+00,0.000000000000000000e+00,0.000000000000000000e+00,9.154918209860795463e-22,1.419475570664953741e-31,5.062807165876140964e-25,1.620728799350360110e-12,5.330207600593725360e-14,9.926940953704572701e-14,2.296593850154323521e-11,5.346005122603323342e-08,2.748085694955043184e-06,2.990008746865927210e-06,1.785338038624280520e-05,1.223223705588703473e-05,1.018821588196137761e-04,5.210364194218395885e-05,2.223350828895634770e-04,2.053708172264529798e-04,3.714538691018938010e-04,4.298827920667491320e-04,4.306338158703026681e-04,7.831620183408150937e-04,7.098555555478565371e-04,1.017732878986644463e-03,5.992405800756022598e-04,6.485060351021612775e-04,8.467941724674931921e-04,8.163948961111642394e-04,5.787951796057097574e-04,4.807833009722277525e-04,4.732375750533777416e-04,4.973677581127964676e-04,4.212035933140462077e-04,4.831154977190270155e-04,3.161558533282514145e-04,2.854887141477189627e-04,1.455129303081813057e-04,6.523881374567356119e-05,5.558763297508627393e-06,4.368484310181746824e-06,7.073355738864466224e-07,8.580098498632247493e-07,1.746548395396002759e-06,7.629396900815677564e-11,2.180339566143464316e-11,5.191740336526357074e-16,3.746433542553020902e-34,8.487061069790504695e-38,0.000000000000000000e+00,0.000000000000000000e+00,0.000000000000000000e+00,0.000000000000000000e+00,0.000000000000000000e+00,0.000000000000000000e+00,0.000000000000000000e+00,0.000000000000000000e+00,0.000000000000000000e+00,0.000000000000000000e+00,0.000000000000000000e+00,0.000000000000000000e+00,0.000000000000000000e+00,0.000000000000000000e+00,0.000000000000000000e+00,0.000000000000000000e+00,0.000000000000000000e+00,0.000000000000000000e+00,0.000000000000000000e+00,0.000000000000000000e+00,0.000000000000000000e+00,0.000000000000000000e+00,0.000000000000000000e+00,0.000000000000000000e+00,0.000000000000000000e+00,0.000000000000000000e+00,nan
nan,0.000000000000000000e+00,0.000000000000000000e+00,0.000000000000000000e+00,0.000000000000000000e+00,0.000000000000000000e+00,0.000000000000000000e+00,0.000000000000000000e+00,0.000000000000000000e+00,0.000000000000000000e+00,0.000000000000000000e+00,0.000000000000000000e+00,0.000000000000000000e+00,0.000000000000000000e+00,0.000000000000000000e+00,0.000000000000000000e+00,0.000000000000000000e+00,0.000000000000000000e+00,0.000000000000000000e+00,0.000000000000000000e+00,0.000000000000000000e+00,0.000000000000000000e+00,0.000000000000000000e+00,0.000000000000000000e+00,0.000000000000000000e+00,0.000000000000000000e+00,0.000000000000000000e+00,0.000000000000000000e+00,0.000000000000000000e+00,1.315154998792705093e-38,3.169899067663586288e-26,1.216802684877394017e-14,6.885585696630333637e-18,4.570793517833507736e-16,7.224757649747297588e-16,7.089679201270012067e-14,1.143622735266406451e-09,4.489412160447194238e-06,1.500534452794673771e-07,1.678199319085925402e-07,6.875618677534853621e-06,1.426589201254400024e-07,5.578168967619563935e-06,5.479161288914159630e-05,3.634531396638203220e-05,3.628806945888336967e-05,5.683331038709471842e-05,9.483668004722435498e-05,5.440578190610590738e-05,6.581057072212302564e-05,6.592413522210133952e-05,7.726564157173974466e-05,7.025153291682441402e-05,1.169716501053656878e-04,7.161952981387574796e-05,4.609413748558563608e-05,1.022428068959305392e-04,6.049528023689381274e-05,2.397109814663927162e-05,1.708108732050413409e-05,5.841572366979228562e-06,3.711071808795478437e-06,1.641344790833132624e-06,7.425453238167050682e-09,1.155771202315452988e-08,2.080272076121849536e-11,1.652465229422759363e-08,8.446869539822093539e-09,2.435644714200247599e-16,1.072152334130880696e-22,4.257062012069976767e-23,2.253501973723711433e-34,0.000000000000000000e+00,0.000000000000000000e+00,0.000000000000000000e+00,0.000000000000000000e+00,0.000000000000000000e+00,0.000000000000000000e+00,0.000000000000000000e+00,0.000000000000000000e+00,0.000000000000000000e+00,0.000000000000000000e+00,0.000000000000000000e+00,0.000000000000000000e+00,0.000000000000000000e+00,0.000000000000000000e+00,0.000000000000000000e+00,0.000000000000000000e+00,0.000000000000000000e+00,0.000000000000000000e+00,0.000000000000000000e+00,0.000000000000000000e+00,0.000000000000000000e+00,0.000000000000000000e+00,0.000000000000000000e+00,0.000000000000000000e+00,0.000000000000000000e+00,0.000000000000000000e+00,0.000000000000000000e+00,nan
nan,0.000000000000000000e+00,0.000000000000000000e+00,0.000000000000000000e+00,0.000000000000000000e+00,0.000000000000000000e+00,0.000000000000000000e+00,0.000000000000000000e+00,0.000000000000000000e+00,0.000000000000000000e+00,0.000000000000000000e+00,0.000000000000000000e+00,0.000000000000000000e+00,0.000000000000000000e+00,0.000000000000000000e+00,0.000000000000000000e+00,0.000000000000000000e+00,0.000000000000000000e+00,0.000000000000000000e+00,0.000000000000000000e+00,0.000000000000000000e+00,0.000000000000000000e+00,0.000000000000000000e+00,0.000000000000000000e+00,0.000000000000000000e+00,0.000000000000000000e+00,0.000000000000000000e+00,0.000000000000000000e+00,0.000000000000000000e+00,0.000000000000000000e+00,0.000000000000000000e+00,6.908767548145760395e-37,9.817671492746668147e-25,1.129135964611003703e-23,4.477590176558608667e-21,3.788470995468701501e-20,4.133644548806166229e-20,1.227065917772508908e-10,8.174157424773321115e-11,1.741724915098625297e-09,6.485170210380557166e-11,2.499010920094351116e-08,2.940075371416857196e-10,1.131645113996182141e-07,8.245512547397521525e-08,4.505899973083691761e-07,2.678523815969245350e-06,1.794097558493659418e-06,1.532826523046522155e-06,1.901486635783102750e-07,1.810504886373514645e-06,2.198762845109686293e-07,8.035284570408510966e-06,1.333723998662230321e-06,8.327920515607616026e-07,2.291497346906768576e-06,3.514061135694905932e-06,4.913392748829637850e-07,3.744834590018622579e-07,3.011046924921657309e-07,3.920900754144132317e-08,2.170242359659673816e-08,7.467851954716445936e-09,3.422949122937021519e-13,7.815887008658229946e-13,5.745675880745526277e-15,3.085186054656506633e-17,1.400072746241548280e-24,1.417434228857834200e-23,4.929816091806015007e-34,0.000000000000000000e+00,0.000000000000000000e+00,0.000000000000000000e+00,0.000000000000000000e+00,0.000000000000000000e+00,0.000000000000000000e+00,0.000000000000000000e+00,0.000000000000000000e+00,0.000000000000000000e+00,0.000000000000000000e+00,0.000000000000000000e+00,0.000000000000000000e+00,0.000000000000000000e+00,0.000000000000000000e+00,0.000000000000000000e+00,0.000000000000000000e+00,0.000000000000000000e+00,0.000000000000000000e+00,0.000000000000000000e+00,0.000000000000000000e+00,0.000000000000000000e+00,0.000000000000000000e+00,0.000000000000000000e+00,0.000000000000000000e+00,0.000000000000000000e+00,0.000000000000000000e+00,0.000000000000000000e+00,0.000000000000000000e+00,0.000000000000000000e+00,nan
nan,0.000000000000000000e+00,0.000000000000000000e+00,0.000000000000000000e+00,0.000000000000000000e+00,0.000000000000000000e+00,0.000000000000000000e+00,0.000000000000000000e+00,0.000000000000000000e+00,0.000000000000000000e+00,0.000000000000000000e+00,0.000000000000000000e+00,0.000000000000000000e+00,0.000000000000000000e+00,0.000000000000000000e+00,0.000000000000000000e+00,0.000000000000000000e+00,0.000000000000000000e+00,0.000000000000000000e+00,0.000000000000000000e+00,0.000000000000000000e+00,0.000000000000000000e+00,0.000000000000000000e+00,0.000000000000000000e+00,0.000000000000000000e+00,0.000000000000000000e+00,0.000000000000000000e+00,0.000000000000000000e+00,0.000000000000000000e+00,0.000000000000000000e+00,0.000000000000000000e+00,0.000000000000000000e+00,0.000000000000000000e+00,5.795160016002175056e-24,2.656022327244128943e-35,3.631956852889674298e-30,3.050510655012271440e-21,5.959248623326257451e-16,1.213294544126613842e-15,2.670768125422298381e-21,5.054639776757210542e-23,5.864996563129383084e-15,4.897707890314398194e-15,2.178283651778500407e-11,3.466049938870410924e-11,1.488331738438566587e-10,5.697934795041184110e-08,3.966539607332725048e-08,4.086467134024272856e-10,1.290379616809816675e-10,1.499589959855176964e-11,1.102668229803279186e-10,2.611231087759400077e-11,1.310844912363597119e-08,8.083322605076316441e-11,1.982159882421090435e-10,8.901029238289632596e-10,8.940868739968409464e-13,9.372207534274442219e-13,1.706034954408473899e-13,3.448559889954422123e-11,2.006713233100918661e-09,4.161861247651389317e-09,3.674461300237393160e-24,2.490237561962701429e-22,2.714561202122038387e-32,5.413652787173604547e-25,2.464396909858688239e-36,3.068777189658212933e-34,2.588788106594394092e-34,0.000000000000000000e+00,0.000000000000000000e+00,0.000000000000000000e+00,0.000000000000000000e+00,0.000000000000000000e+00,0.000000000000000000e+00,0.000000000000000000e+00,0.000000000000000000e+00,0.000000000000000000e+00,0.000000000000000000e+00,0.000000000000000000e+00,0.000000000000000000e+00,0.000000000000000000e+00,0.000000000000000000e+00,0.000000000000000000e+00,0.000000000000000000e+00,0.000000000000000000e+00,0.000000000000000000e+00,0.000000000000000000e+00,0.000000000000000000e+00,0.000000000000000000e+00,0.000000000000000000e+00,0.000000000000000000e+00,0.000000000000000000e+00,0.000000000000000000e+00,0.000000000000000000e+00,0.000000000000000000e+00,0.000000000000000000e+00,0.000000000000000000e+00,nan
nan,0.000000000000000000e+00,0.000000000000000000e+00,0.000000000000000000e+00,0.000000000000000000e+00,0.000000000000000000e+00,0.000000000000000000e+00,0.000000000000000000e+00,0.000000000000000000e+00,0.000000000000000000e+00,0.000000000000000000e+00,0.000000000000000000e+00,0.000000000000000000e+00,0.000000000000000000e+00,0.000000000000000000e+00,0.000000000000000000e+00,0.000000000000000000e+00,0.000000000000000000e+00,0.000000000000000000e+00,0.000000000000000000e+00,0.000000000000000000e+00,0.000000000000000000e+00,0.000000000000000000e+00,0.000000000000000000e+00,0.000000000000000000e+00,0.000000000000000000e+00,0.000000000000000000e+00,0.000000000000000000e+00,0.000000000000000000e+00,0.000000000000000000e+00,0.000000000000000000e+00,0.000000000000000000e+00,0.000000000000000000e+00,0.000000000000000000e+00,0.000000000000000000e+00,0.000000000000000000e+00,0.000000000000000000e+00,1.174387016821157614e-30,4.496757350719600424e-22,1.245715252615374134e-31,1.036731241751878419e-23,3.628390852970248078e-33,1.237002498077060803e-16,3.756402007589143052e-16,5.190980814142919877e-17,3.993038906217009735e-15,8.572595908937159472e-15,1.058662998726294120e-14,1.395911666569811280e-20,8.031279767083719171e-21,2.050174263283577967e-16,4.426054697484531231e-13,8.979948011542231375e-17,1.176077744694728168e-22,3.337206796115297891e-16,3.361171675690514543e-16,1.170822916475860432e-18,2.019063456917766349e-19,1.390469005273109860e-18,1.113382242578525374e-14,9.717376243043431495e-21,5.714391870885624419e-17,4.878559941084129133e-25,6.678954607183674629e-33,0.000000000000000000e+00,1.729171684105572839e-37,9.956849365811805253e-37,4.293600993787766284e-38,0.000000000000000000e+00,0.000000000000000000e+00,0.000000000000000000e+00,0.000000000000000000e+00,0.000000000000000000e+00,0.000000000000000000e+00,0.000000000000000000e+00,0.000000000000000000e+00,0.000000000000000000e+00,0.000000000000000000e+00,0.000000000000000000e+00,0.000000000000000000e+00,0.000000000000000000e+00,0.000000000000000000e+00,0.000000000000000000e+00,0.000000000000000000e+00,0.000000000000000000e+00,0.000000000000000000e+00,0.000000000000000000e+00,0.000000000000000000e+00,0.000000000000000000e+00,0.000000000000000000e+00,0.000000000000000000e+00,0.000000000000000000e+00,0.000000000000000000e+00,0.000000000000000000e+00,0.000000000000000000e+00,0.000000000000000000e+00,0.000000000000000000e+00,0.000000000000000000e+00,0.000000000000000000e+00,nan
nan,0.000000000000000000e+00,0.000000000000000000e+00,0.000000000000000000e+00,0.000000000000000000e+00,0.000000000000000000e+00,0.000000000000000000e+00,0.000000000000000000e+00,0.000000000000000000e+00,0.000000000000000000e+00,0.000000000000000000e+00,0.000000000000000000e+00,0.000000000000000000e+00,0.000000000000000000e+00,0.000000000000000000e+00,0.000000000000000000e+00,0.000000000000000000e+00,0.000000000000000000e+00,0.000000000000000000e+00,0.000000000000000000e+00,0.000000000000000000e+00,0.000000000000000000e+00,0.000000000000000000e+00,0.000000000000000000e+00,0.000000000000000000e+00,0.000000000000000000e+00,0.000000000000000000e+00,0.000000000000000000e+00,0.000000000000000000e+00,0.000000000000000000e+00,0.000000000000000000e+00,0.000000000000000000e+00,0.000000000000000000e+00,0.000000000000000000e+00,0.000000000000000000e+00,0.000000000000000000e+00,0.000000000000000000e+00,0.000000000000000000e+00,0.000000000000000000e+00,0.000000000000000000e+00,0.000000000000000000e+00,9.860838928197130533e-36,0.000000000000000000e+00,1.765693183381529569e-34,2.116007286294500495e-23,7.052429836262602733e-36,1.014059373928171600e-15,0.000000000000000000e+00,2.174239625375377505e-31,7.971941098562394389e-31,1.501875633646460877e-25,9.927643589221614789e-27,3.399305352324631486e-24,7.955615123558512674e-24,1.563806377213347183e-33,4.941454607443322522e-34,3.764438153340125004e-35,8.421663538563219768e-31,2.993760645105552648e-19,6.181506638506519630e-28,6.855294208068969208e-21,7.252196422012548395e-37,0.000000000000000000e+00,0.000000000000000000e+00,0.000000000000000000e+00,0.000000000000000000e+00,0.000000000000000000e+00,0.000000000000000000e+00,0.000000000000000000e+00,0.000000000000000000e+00,0.000000000000000000e+00,0.000000000000000000e+00,0.000000000000000000e+00,0.000000000000000000e+00,0.000000000000000000e+00,0.000000000000000000e+00,0.000000000000000000e+00,0.000000000000000000e+00,0.000000000000000000e+00,0.000000000000000000e+00,0.000000000000000000e+00,0.000000000000000000e+00,0.000000000000000000e+00,0.000000000000000000e+00,0.000000000000000000e+00,0.000000000000000000e+00,0.000000000000000000e+00,0.000000000000000000e+00,0.000000000000000000e+00,0.000000000000000000e+00,0.000000000000000000e+00,0.000000000000000000e+00,0.000000000000000000e+00,0.000000000000000000e+00,0.000000000000000000e+00,0.000000000000000000e+00,0.000000000000000000e+00,0.000000000000000000e+00,0.000000000000000000e+00,nan
nan,0.000000000000000000e+00,0.000000000000000000e+00,0.000000000000000000e+00,0.000000000000000000e+00,0.000000000000000000e+00,0.000000000000000000e+00,0.000000000000000000e+00,0.000000000000000000e+00,0.000000000000000000e+00,0.000000000000000000e+00,0.000000000000000000e+00,0.000000000000000000e+00,0.000000000000000000e+00,0.000000000000000000e+00,0.000000000000000000e+00,0.000000000000000000e+00,0.000000000000000000e+00,0.000000000000000000e+00,0.000000000000000000e+00,0.000000000000000000e+00,0.000000000000000000e+00,0.000000000000000000e+00,0.000000000000000000e+00,0.000000000000000000e+00,0.000000000000000000e+00,0.000000000000000000e+00,0.000000000000000000e+00,0.000000000000000000e+00,0.000000000000000000e+00,0.000000000000000000e+00,0.000000000000000000e+00,0.000000000000000000e+00,0.000000000000000000e+00,0.000000000000000000e+00,0.000000000000000000e+00,0.000000000000000000e+00,0.000000000000000000e+00,0.000000000000000000e+00,0.000000000000000000e+00,0.000000000000000000e+00,0.000000000000000000e+00,0.000000000000000000e+00,0.000000000000000000e+00,0.000000000000000000e+00,3.640111054844966971e-37,0.000000000000000000e+00,0.000000000000000000e+00,0.000000000000000000e+00,0.000000000000000000e+00,0.000000000000000000e+00,0.000000000000000000e+00,0.000000000000000000e+00,2.253339876325263650e-35,6.113950792614867144e-35,0.000000000000000000e+00,0.000000000000000000e+00,0.000000000000000000e+00,0.000000000000000000e+00,0.000000000000000000e+00,0.000000000000000000e+00,2.042201964490377461e-37,0.000000000000000000e+00,0.000000000000000000e+00,0.000000000000000000e+00,0.000000000000000000e+00,0.000000000000000000e+00,0.000000000000000000e+00,0.000000000000000000e+00,0.000000000000000000e+00,0.000000000000000000e+00,0.000000000000000000e+00,0.000000000000000000e+00,0.000000000000000000e+00,0.000000000000000000e+00,0.000000000000000000e+00,0.000000000000000000e+00,0.000000000000000000e+00,0.000000000000000000e+00,0.000000000000000000e+00,0.000000000000000000e+00,0.000000000000000000e+00,0.000000000000000000e+00,0.000000000000000000e+00,0.000000000000000000e+00,0.000000000000000000e+00,0.000000000000000000e+00,0.000000000000000000e+00,0.000000000000000000e+00,0.000000000000000000e+00,0.000000000000000000e+00,0.000000000000000000e+00,0.000000000000000000e+00,0.000000000000000000e+00,0.000000000000000000e+00,0.000000000000000000e+00,0.000000000000000000e+00,0.000000000000000000e+00,0.000000000000000000e+00,nan
