nan,0.000000000000000000e+00,0.000000000000000000e+00,0.000000000000000000e+00,0.000000000000000000e+00,0.000000000000000000e+00,0.000000000000000000e+00,0.000000000000000000e+00,0.000000000000000000e+00,0.000000000000000000e+00,0.000000000000000000e+00,0.000000000000000000e+00,0.000000000000000000e+00,0.000000000000000000e+00,0.000000000000000000e+00,0.000000000000000000e+00,0.000000000000000000e+00,1.641635148854558163e-02,1.409961793699569463e-02,0.000000000000000000e+00,0.000000000000000000e+00,0.000000000000000000e+00,0.000000000000000000e+00,0.000000000000000000e+00,0.000000000000000000e+00,0.000000000000000000e+00,0.000000000000000000e+00,0.000000000000000000e+00,0.000000000000000000e+00,0.000000000000000000e+00,0.000000000000000000e+00,0.000000000000000000e+00,2.045799063714080074e-02,0.000000000000000000e+00,0.000000000000000000e+00,0.000000000000000000e+00,0.000000000000000000e+00,0.000000000000000000e+00,0.000000000000000000e+00,0.000000000000000000e+00,0.000000000000000000e+00,0.000000000000000000e+00,0.000000000000000000e+00,0.000000000000000000e+00,0.000000000000000000e+00,1.262330627776878933e-01,2.454203283918723610e-01,2.506158652913318408e-01,2.524559462053770353e-01,2.538713926176754399e-01,2.534336635737908794e-01,2.499109828376546716e-01,2.467243042714808432e-01,2.265721952213630708e-01,2.151721714718161649e-01,0.000000000000000000e+00,3.888986067874816710e-02,3.826936483482146212e-02,0.000000000000000000e+00,0.000000000000000000e+00,0.000000000000000000e+00,0.000000000000000000e+00,0.000000000000000000e+00,0.000000000000000000e+00,0.000000000000000000e+00,0.000000000000000000e+00,0.000000000000000000e+00,0.000000000000000000e+00,0.000000000000000000e+00,0.000000000000000000e+00,0.000000000000000000e+00,0.000000000000000000e+00,1.975300245933070756e-02,0.000000000000000000e+00,0.000000000000000000e+00,1.830954025100090324e-02,0.000000000000000000e+00,0.000000000000000000e+00,0.000000000000000000e+00,0.000000000000000000e+00,0.000000000000000000e+00,0.000000000000000000e+00,1.983435830259179956e-03,0.000000000000000000e+00,0.000000000000000000e+00,0.000000000000000000e+00,0.000000000000000000e+00,0.000000000000000000e+00,8.320321107238980054e-05,0.000000000000000000e+00,3.276430348067717297e-05,0.000000000000000000e+00,0.000000000000000000e+00,7.754310729835254528e-15,0.000000000000000000e+00,0.000000000000000000e+00,0.000000000000000000e+00,0.000000000000000000e+00,0.000000000000000000e+00,nan
nan,0.000000000000000000e+00,0.000000000000000000e+00,0.000000000000000000e+00,2.463456874324164491e-16,3.289616610738408336e-15,1.633254479655948706e-06,1.511209734163638274e-06,2.028860959665804891e-04,6.228333781912063702e-04,7.704771146256953179e-04,4.788455762755932689e-03,3.318632341500355517e-03,3.053028783419459852e-02,2.700078695042533450e-02,2.043524953262706306e-02,3.719150017476838266e-02,4.902289628625751405e-02,6.246657124569040404e-02,4.387579884532642749e-02,3.144911115507555144e-02,4.729520817162721075e-02,8.681637246378406253e-03,5.198628595944173453e-02,4.640357184645421684e-02,5.274122035798955305e-02,4.436133726986974529e-02,8.952692088953127791e-02,9.673621442700709727e-02,6.474773666861546872e-02,6.322836291764789840e-02,1.062228953735018522e-01,9.961000581029068324e-02,1.703521252777928999e-02,9.204953117012200370e-02,4.694131090383562438e-02,3.780197770028800863e-02,6.427315194623056671e-03,4.338476679184376933e-02,2.472842946439895995e-02,7.079718262034030707e-02,7.803103690382216795e-02,3.210802460801824576e-02,1.062567949187741140e-01,1.325698421799133553e-01,2.090067529209302388e-01,2.385356445330399366e-01,2.492705386685095670e-01,2.505849581205932819e-01,2.552785093982046227e-01,2.535515733935043148e-01,2.493240496020851515e-01,2.423112754554031800e-01,2.315276082381921285e-01,2.238341350748887515e-01,1.330861301510596617e-01,1.784009616515211671e-01,4.046157073928051406e-02,8.923905127797934766e-02,1.123903910419374458e-01,1.420522716927694884e-01,1.297719458637578427e-01,7.415798705946095859e-02,2.138374810520791633e-02,2.058145947879116977e-02,3.228724476644480312e-02,8.931911568446147809e-02,7.068688227527196444e-02,1.941229352186674140e-02,6.206005197656241229e-02,7.680527565338005069e-02,4.499941830238553958e-02,7.674570368396231579e-02,4.412272350477106780e-02,7.396115461268652769e-02,4.530011621892574003e-02,2.983853411614453485e-02,3.260666588570716729e-02,5.602042461388190286e-02,6.773216012912504705e-03,5.279336128078811197e-02,1.972462300865319637e-02,3.484328269096484409e-02,1.297740055928191943e-02,2.259317756655188775e-02,2.148004122925057172e-02,7.092398754281433078e-03,6.824830246833872398e-03,2.440586943206927723e-03,1.544750601977496179e-03,2.573292439433537328e-04,2.617220396508301917e-05,2.836332465709280809e-07,1.025847527207925448e-10,1.313048743239947657e-10,4.728565401328449271e-21,0.000000000000000000e+00,0.000000000000000000e+00,0.000000000000000000e+00,nan
nan,0.000000000000000000e+00,0.000000000000000000e+00,1.295866705336228594e-32,1.258333945672176776e-21,1.805516650828570900e-10,1.867291416792442298e-07,8.088331312876125353e-06,2.187658210245271428e-04,1.902273253077533003e-03,3.598258992741633702e-03,7.032394927903253337e-03,1.893209065340924549e-02,3.356113410414784948e-02,4.391238290171676356e-02,5.066666385578250109e-02,5.700612840633062506e-02,6.210827538431287764e-02,6.624087805433792608e-02,7.025494456969827439e-02,7.470326450090879200e-02,8.247415642837416239e-02,8.846813245127363445e-02,9.521405811350505677e-02,1.001728296051942330e-01,1.038391865635787392e-01,1.071322280859739462e-01,1.110972831223571711e-01,1.141707422676989936e-01,1.174911204085606481e-01,1.212313160091006703e-01,1.247881700632571811e-01,1.275180551721780409e-01,1.341086225891243155e-01,1.383320954691026894e-01,1.421249311030524654e-01,1.195167659256425874e-01,1.533870532812651732e-01,1.451307634687771797e-01,1.642166827416763064e-01,1.695037348237835306e-01,1.662742062559814660e-01,1.511165218229872653e-01,1.954775238303225748e-01,2.052422643877184483e-01,2.169661383633327278e-01,2.301734429911161950e-01,2.369157337057003210e-01,2.409446360754994854e-01,2.427022097993384309e-01,2.423793599445221159e-01,2.385709513019131645e-01,2.333269748739067451e-01,2.265203434823678530e-01,2.186625333574040431e-01,2.089391095151254263e-01,1.957798068711081585e-01,1.078076303235427774e-01,1.694344199596150291e-01,1.659135886680969951e-01,1.608383998521012714e-01,1.565708156657199257e-01,1.518899406052569012e-01,1.450681482898534824e-01,1.415825561483344264e-01,1.373762929713359671e-01,1.320972013693278990e-01,1.278125238843484668e-01,1.245805148620914016e-01,1.169410137739445577e-01,1.165909129999817551e-01,1.137621326164838104e-01,9.654681330494392644e-02,1.038005817891227422e-01,1.002129191124434548e-01,9.383729954636849113e-02,9.025031509929670737e-02,8.689912183987009986e-02,8.435969173085400286e-02,7.203444268354336488e-02,7.166745401690412243e-02,6.552818180156397276e-02,5.234972193296622001e-02,4.897901869880913472e-02,3.876808325887375062e-02,2.855669262541367034e-02,1.767842117367205562e-02,9.576510522160672223e-03,5.160202413315129535e-03,2.537784691132385657e-03,6.627348136667222164e-04,1.016726128464884261e-04,6.097394331602665776e-06,9.883326159134685665e-08,1.888998036242312073e-12,2.284312226856142113e-16,3.157407253492968620e-31,0.000000000000000000e+00,0.000000000000000000e+00,nan
nan,0.000000000000000000e+00,0.000000000000000000e+00,1.883207820226102584e-31,8.316872273862478524e-15,3.424848102222447863e-14,1.608658496249126263e-07,1.570063144655223754e-05,2.470812412537378138e-04,1.728063194499344750e-03,4.124440498881462233e-03,8.618383805297030742e-03,1.603637428989223429e-02,3.072412425676962489e-02,4.232189834356259867e-02,4.968364078876964796e-02,5.595846334469609801e-02,6.157538023453282966e-02,6.635799094440285317e-02,7.121278563328091449e-02,7.635577008256104470e-02,8.218301190259932887e-02,8.870126738636528729e-02,9.396218607541406698e-02,9.889443724890484289e-02,1.027220794277109994e-01,1.065009940134621913e-01,1.104127407755403217e-01,1.138695238325615477e-01,1.175248977736526451e-01,1.210973909449975933e-01,1.246038578273246655e-01,1.285274929280093292e-01,1.330693111680182061e-01,1.377814993572134827e-01,1.419096095349861586e-01,1.469930851867254362e-01,1.524008631303076233e-01,1.577531664298570113e-01,1.629474911132685611e-01,1.687377586928162088e-01,1.757266395558932104e-01,1.836689849164220845e-01,1.920477206040869800e-01,2.001579161632959791e-01,2.095357500668180162e-01,2.169493733427994842e-01,2.233435511010775365e-01,2.275695154059789171e-01,2.294069315332552539e-01,2.293009333006778838e-01,2.264861028118905217e-01,2.224201185300621053e-01,2.165151575632920933e-01,2.099480378949247772e-01,2.013634399361895755e-01,1.901372624103493392e-01,1.804831945293289830e-01,1.702099404258097803e-01,1.648023087304196777e-01,1.601289116733606854e-01,1.560319002603403060e-01,1.506984050297526245e-01,1.453631641240363537e-01,1.408862750377248563e-01,1.365837583836738423e-01,1.321117950958190512e-01,1.279261594963273518e-01,1.238527163897289590e-01,1.199921892896231440e-01,1.164639821974072231e-01,1.121073235170164384e-01,1.077870913607418268e-01,1.036185975831487305e-01,9.973358895281506098e-02,9.503645777939434547e-02,9.073291340477046552e-02,8.690136943138787595e-02,8.315795932817590663e-02,7.861885416730787779e-02,7.236325195251817888e-02,6.573662613775221875e-02,5.881471121646631578e-02,5.036015065449820499e-02,4.008357589957592393e-02,2.923728450299637252e-02,1.822231721142515345e-02,1.049415416471637282e-02,5.784661253427830774e-03,2.788177617794341482e-03,1.063445146051891386e-03,1.195231150256993881e-04,8.074092392741748288e-06,1.092472457320155750e-07,1.452991045206179341e-11,6.642093493501562982e-17,4.869708066968691482e-24,0.000000000000000000e+00,0.000000000000000000e+00,nan
nan,0.000000000000000000e+00,0.000000000000000000e+00,2.176157083838803893e-25,4.932054684390824346e-22,2.482137199988952909e-10,4.831386305386362223e-07,1.960792223727986393e-05,2.809841074738935731e-04,1.430844303936942797e-03,4.190210225980252508e-03,7.936823395883358181e-03,1.583425389530017727e-02,2.872032162726037910e-02,3.989468376725406606e-02,4.885367793144464177e-02,5.552894114090361349e-02,6.144968302278356470e-02,6.668889736651166522e-02,7.183536898316747465e-02,7.716510518822407294e-02,8.275431445704475864e-02,8.839234966537388993e-02,9.328028349581024559e-02,9.802899874132470215e-02,1.020313662213973571e-01,1.059168675616623118e-01,1.097363102018224373e-01,1.134487519429974445e-01,1.170592052017066509e-01,1.207028428458554459e-01,1.243432075298297190e-01,1.282538370890843049e-01,1.329335197444977412e-01,1.369592498487737231e-01,1.414029293439218182e-01,1.462163193378495374e-01,1.512228301774721229e-01,1.564233468375996194e-01,1.615150029418969957e-01,1.670611471483580690e-01,1.732747833061111797e-01,1.801585878493213722e-01,1.875262337120036926e-01,1.943401672774948685e-01,2.014770377615398289e-01,2.083702463925052040e-01,2.129167242525119297e-01,2.160844894910645131e-01,2.176485664990341906e-01,2.172876905018029658e-01,2.154714091766654072e-01,2.121282947452285406e-01,2.076124351697111459e-01,2.015166697236704108e-01,1.942100081492341701e-01,1.861287247577070592e-01,1.776620364532559282e-01,1.697143037816850053e-01,1.640674655080197608e-01,1.588218355986157904e-01,1.542442840131419135e-01,1.494189524854661055e-01,1.447278243197846481e-01,1.402135750162837036e-01,1.359666786901166380e-01,1.316858742497881429e-01,1.274169671863610853e-01,1.234242842003143714e-01,1.196034199773668288e-01,1.159051190597818332e-01,1.116526724079514726e-01,1.075857985209557194e-01,1.033669240101443426e-01,9.920589424391902666e-02,9.480207699572322511e-02,9.050052418046314329e-02,8.656835944112972747e-02,8.236877107798248887e-02,7.789469373207050240e-02,7.223119414927739457e-02,6.600852568415470356e-02,5.932136677712854939e-02,5.146645520269304414e-02,4.152799102175692286e-02,2.970248150495906694e-02,1.880441711620637821e-02,1.062001096132037317e-02,6.135186448918081466e-03,3.410278381411552609e-03,1.227630544809892249e-03,3.255202318667466555e-04,4.360321391556783325e-06,1.564379717441182208e-08,4.040055512533560548e-15,7.722149807716526637e-16,4.043374710404687103e-35,0.000000000000000000e+00,0.000000000000000000e+00,nan
nan,0.000000000000000000e+00,0.000000000000000000e+00,0.000000000000000000e+00,1.541755971283400819e-24,4.768192973242238575e-12,2.463813281448539628e-08,1.682550966533995657e-05,2.829297696158332627e-04,1.132760149010898472e-03,4.246778050170962535e-03,8.377157473891620049e-03,1.555530089616046982e-02,2.653536556559357718e-02,3.824088166960764451e-02,4.754334772106047491e-02,5.490016451173606454e-02,6.110914886597523799e-02,6.659843117151104108e-02,7.199978149458989563e-02,7.736262772896336515e-02,8.270232375833157235e-02,8.785953308046312582e-02,9.273431943757395879e-02,9.710369982006053502e-02,1.012675309538227097e-01,1.052114220616149620e-01,1.090159530503025664e-01,1.127383657340259304e-01,1.164414436593926988e-01,1.201286911475742819e-01,1.238372798502147820e-01,1.278217865836061284e-01,1.319541295246074997e-01,1.362046722525372955e-01,1.404955505185746800e-01,1.450653352634957705e-01,1.497637564319938830e-01,1.547130824238517333e-01,1.597625493267582075e-01,1.647986862468584501e-01,1.704766653464044879e-01,1.764385202148367193e-01,1.824041269880883887e-01,1.885952589734217200e-01,1.942212051498330427e-01,1.995034840414970645e-01,2.032621632631437247e-01,2.060282561622175934e-01,2.072548342278497657e-01,2.071752107377234919e-01,2.054728292492329078e-01,2.031250454956119444e-01,1.988081520497155530e-01,1.942202958598391316e-01,1.878042550871341365e-01,1.816016495850894530e-01,1.742549072931225407e-01,1.680023092571519827e-01,1.623912310028532979e-01,1.572638946225651813e-01,1.526283673205526825e-01,1.481570823654039526e-01,1.436121208943642036e-01,1.391848704088506916e-01,1.349943682130075040e-01,1.308480278504985939e-01,1.267260465232438738e-01,1.228186004765602773e-01,1.189273721635835945e-01,1.150697213445562583e-01,1.110511505166987684e-01,1.070571395636956136e-01,1.029605446683943826e-01,9.877432519587536763e-02,9.449383653982668108e-02,9.028671247890433793e-02,8.599917448748505000e-02,8.175299326828923407e-02,7.705634426815477500e-02,7.160256697484471133e-02,6.570081689361201294e-02,5.925336391819670950e-02,5.138637105064870758e-02,4.155712222620467494e-02,3.024673714074748582e-02,1.877748102645095812e-02,1.029704007174746944e-02,6.052340953783496430e-03,3.177564302336091835e-03,1.239151653617183565e-03,3.492297391925068464e-04,7.032512457682690541e-06,4.253683745797652614e-10,9.629554358998180145e-12,2.209552356821873620e-15,2.583944950969464074e-35,0.000000000000000000e+00,0.000000000000000000e+00,nan
nan,0.000000000000000000e+00,0.000000000000000000e+00,3.912912681448377165e-37,2.363645793658869816e-36,1.921976904328681030e-10,6.689998415362288491e-09,7.745460285232869297e-06,2.183947388780554564e-04,1.234437022248814023e-03,3.744442080986805539e-03,8.215147909994568315e-03,1.401991978199138358e-02,2.468833416975734288e-02,3.668368556973596734e-02,4.651640744766986219e-02,5.420238901222259459e-02,6.058412610166988288e-02,6.637482244580533708e-02,7.187779285501845472e-02,7.720734014455052363e-02,8.231261754241743500e-02,8.719449057709222073e-02,9.190533366522135594e-02,9.628618707800473686e-02,1.003896491580894695e-01,1.043675714110831598e-01,1.081829488123890459e-01,1.118991688665266909e-01,1.155884936479153191e-01,1.192508989125129482e-01,1.230951697844591131e-01,1.269215111304083654e-01,1.309072227200061556e-01,1.350532202225372680e-01,1.391902186002355324e-01,1.435513309616877065e-01,1.479692138624228992e-01,1.524300258325421431e-01,1.574034108478009064e-01,1.622852711664868053e-01,1.671808921183585706e-01,1.724785104499964583e-01,1.777960506029508114e-01,1.828350132183890753e-01,1.875006883306772620e-01,1.915703674816948976e-01,1.950670114132607713e-01,1.970999178874147106e-01,1.980473795052138664e-01,1.983013895811572835e-01,1.967292633277614722e-01,1.944548932602855329e-01,1.909273514805809313e-01,1.867471385841426579e-01,1.818541147672904923e-01,1.763587097517924362e-01,1.704823205255376339e-01,1.651524949176886858e-01,1.599716063093936103e-01,1.552706368458930675e-01,1.508301046076185870e-01,1.463885015664068145e-01,1.421446013266169373e-01,1.379121901975497722e-01,1.338055858386665853e-01,1.297677196136768074e-01,1.257665212509691544e-01,1.218902330843676801e-01,1.180251400469324169e-01,1.141277125370579043e-01,1.102596388656601201e-01,1.062595641528955581e-01,1.022389941548704495e-01,9.811044958264766858e-02,9.392827602350037330e-02,8.972486765228783467e-02,8.544250505039185928e-02,8.096767189397487130e-02,7.620845437858717042e-02,7.078699712423529300e-02,6.510506493505685555e-02,5.859641426219446697e-02,5.115682395543828115e-02,4.182081694305239683e-02,3.046775042208795664e-02,1.860229700766488636e-02,9.399342518250763251e-03,5.510852160266347180e-03,2.756542466017780635e-03,1.120743039674235685e-03,1.710748084108753599e-04,1.251806159938684226e-05,2.885550618937663622e-09,1.067069057408890431e-10,1.015726229801971339e-21,0.000000000000000000e+00,0.000000000000000000e+00,0.000000000000000000e+00,nan
nan,0.000000000000000000e+00,0.000000000000000000e+00,0.000000000000000000e+00,4.697092887293177147e-20,2.435073826767939631e-18,4.565575722152117858e-11,2.423090821695403916e-05,1.821654454725263003e-04,9.514682429216281441e-04,3.425272326057853499e-03,7.529123696631338097e-03,1.334087668644978221e-02,2.333133367028523628e-02,3.525957549950207298e-02,4.529474973899665774e-02,5.293479442043405592e-02,5.983683388949628812e-02,6.579013276605566451e-02,7.137477749969896312e-02,7.662645671268600300e-02,8.165017926567415263e-02,8.639579619863096971e-02,9.102172326182224327e-02,9.526988878639214287e-02,9.940947914866563040e-02,1.033715662322649276e-01,1.071761756048070224e-01,1.108720424456891424e-01,1.145720474516634946e-01,1.182260307654322273e-01,1.219952137537845954e-01,1.257741493698663060e-01,1.297094009638405931e-01,1.335996043010662659e-01,1.376679621531885223e-01,1.417673793992891007e-01,1.460352078517963281e-01,1.503057435202724279e-01,1.547030924175498146e-01,1.592275212963269182e-01,1.636764934927365522e-01,1.683002997334372419e-01,1.727972979234293216e-01,1.769956475035232291e-01,1.809054849832616718e-01,1.844688574471689269e-01,1.871456098562253034e-01,1.891599600356398958e-01,1.900386965213242130e-01,1.899365350686938181e-01,1.886949595903549826e-01,1.866887454262121382e-01,1.841146422109995462e-01,1.802635469346864083e-01,1.763064024392912987e-01,1.716723733142619945e-01,1.668848010770361823e-01,1.621597420771298259e-01,1.573719712760456579e-01,1.529149727704151029e-01,1.487396430179885598e-01,1.445520401904040186e-01,1.404373964820045950e-01,1.363387447905832495e-01,1.323922828386639994e-01,1.284482419452459556e-01,1.246254040861398404e-01,1.207542465129253506e-01,1.169780618139176914e-01,1.131373254736384171e-01,1.093110600351758777e-01,1.054067482407337192e-01,1.013641539175312994e-01,9.732766171928305954e-02,9.318000291560962767e-02,8.897432126934017027e-02,8.462372151171841661e-02,8.008620980911095033e-02,7.526642987500661852e-02,7.000668421368952399e-02,6.428089358115460228e-02,5.785561033443988033e-02,5.027469655437361712e-02,4.050007821807851544e-02,2.887778067539424620e-02,1.685938090792665420e-02,9.191001642248380205e-03,5.173291559105361835e-03,2.661197615720981274e-03,1.040617453512496628e-03,1.817179438747691645e-04,3.338297388815412496e-06,1.202783774411224980e-08,2.992901237883266753e-12,5.191613502341333517e-18,4.335512270446257370e-39,0.000000000000000000e+00,0.000000000000000000e+00,nan
nan,0.000000000000000000e+00,0.000000000000000000e+00,0.000000000000000000e+00,5.124367727618524079e-16,3.672069214917449525e-15,5.036209952794582207e-08,4.886425698705100897e-06,2.548743400407836026e-04,9.356355810911451279e-04,2.934971609458991715e-03,6.511137252090780717e-03,1.268273959352429238e-02,2.203159257026941764e-02,3.363517269183293606e-02,4.363617420563668109e-02,5.195539587932058306e-02,5.886034611652108534e-02,6.499494127813519595e-02,7.051127044670152388e-02,7.582004431495539820e-02,8.080550443525362503e-02,8.552197478383948004e-02,8.994104607988170907e-02,9.420148215275542247e-02,9.830247635259778405e-02,1.022305394805875650e-01,1.060268623329313625e-01,1.097421888371065829e-01,1.134004184156447853e-01,1.170740314208497251e-01,1.207259530887382498e-01,1.244141550195730778e-01,1.281950818105530576e-01,1.319943945943779229e-01,1.358695348890512633e-01,1.398002187873016444e-01,1.438173243081357078e-01,1.478000038699533725e-01,1.519735349697869387e-01,1.559705656329732903e-01,1.600857032805132474e-01,1.642220242581733658e-01,1.679827452229095130e-01,1.717982360628153571e-01,1.752321913921098262e-01,1.779851253346630413e-01,1.803641705774385040e-01,1.815702286718144376e-01,1.822594288136904772e-01,1.824748354445933640e-01,1.817730641109212009e-01,1.798196430940907364e-01,1.771664581912521519e-01,1.743327631355229279e-01,1.709861179029949219e-01,1.668181164775721648e-01,1.629018510154060517e-01,1.586425236533829941e-01,1.543592362600851309e-01,1.502749673892311011e-01,1.463499890138655612e-01,1.424256788601999946e-01,1.384323681885543667e-01,1.346135341305720323e-01,1.307485569980446349e-01,1.269784356719873830e-01,1.232182156671350476e-01,1.195029251922329339e-01,1.157045745768783274e-01,1.119801678384967081e-01,1.081716459573662387e-01,1.043143683953264012e-01,1.003733039145919131e-01,9.630757236776690822e-02,9.222902355100648375e-02,8.801594386827113481e-02,8.366223604978906270e-02,7.910487745088100320e-02,7.425191159616030545e-02,6.897367580155874811e-02,6.322005112922406134e-02,5.674094660346316182e-02,4.901442277381864998e-02,3.892106489452415441e-02,2.631305012279656907e-02,1.472965705152913876e-02,8.109992057479132460e-03,4.954993522112341627e-03,2.142502806159320410e-03,7.319171383755510409e-04,1.318390536692742887e-04,5.903583458957109060e-05,4.162096012765458492e-09,5.949629858445498987e-13,5.058195630184382628e-26,0.000000000000000000e+00,0.000000000000000000e+00,0.000000000000000000e+00,nan
nan,0.000000000000000000e+00,0.000000000000000000e+00,0.000000000000000000e+00,1.615889157058694619e-28,6.146397293287757545e-14,3.010950081173498236e-08,2.793516707625715942e-05,1.200108881800309173e-04,8.567511846318584100e-04,2.512042662480764611e-03,6.165977895731494622e-03,1.149945301001368755e-02,1.941123017527215250e-02,3.125268141357064045e-02,4.197780264238727688e-02,5.046366286960788511e-02,5.769474097050902167e-02,6.394321948596462524e-02,6.955126037508911618e-02,7.481098870475154372e-02,7.971633704265652931e-02,8.438693419643514271e-02,8.880506908862106918e-02,9.300858714070600608e-02,9.707154693624003849e-02,1.009479695417347389e-01,1.047170679544573990e-01,1.084125646865433251e-01,1.120600547158236704e-01,1.156179970431263637e-01,1.192549933445603838e-01,1.228864378057497875e-01,1.265193258508725827e-01,1.302304044764648894e-01,1.339143424725421083e-01,1.376494085165155812e-01,1.413846936868176085e-01,1.452032689840704605e-01,1.488990349164888427e-01,1.527524696448545605e-01,1.563271037468845770e-01,1.600135294431782595e-01,1.634169264750109929e-01,1.667069107047982612e-01,1.695103624194384817e-01,1.717536226032848612e-01,1.738950892276640570e-01,1.750769711971755793e-01,1.757201204037107944e-01,1.758348767512316058e-01,1.749787233727268521e-01,1.733816815057673821e-01,1.714721522351196625e-01,1.689703749141550360e-01,1.659008236927202451e-01,1.623927247469482138e-01,1.588962785784203136e-01,1.549547425293167635e-01,1.512889726501183973e-01,1.475448035335975294e-01,1.438428525806993430e-01,1.400675710646454297e-01,1.363939325974905248e-01,1.326495812560797571e-01,1.289951868672250535e-01,1.253421506776079830e-01,1.216615568166332095e-01,1.180017253301886837e-01,1.143517715390637290e-01,1.106319267505535137e-01,1.068774519507273146e-01,1.030453603314659961e-01,9.916946854569420877e-02,9.518692324634774049e-02,9.105704559640710738e-02,8.689938317920407884e-02,8.252861717888090864e-02,7.793098667431239135e-02,7.309782967497267803e-02,6.783362777224896667e-02,6.182949647332590393e-02,5.525226465572803669e-02,4.740217506693446964e-02,3.755589891999001895e-02,2.480204950619589038e-02,1.384184156768266533e-02,7.558579128660726336e-03,4.201329858320977835e-03,1.679603917530251862e-03,4.922118354351915064e-04,9.216998453340132912e-05,4.000355245199419533e-06,5.610380324680810685e-08,2.272757754164651409e-15,1.359009749560589012e-22,4.615044185308851906e-33,0.000000000000000000e+00,0.000000000000000000e+00,nan
nan,0.000000000000000000e+00,0.000000000000000000e+00,0.000000000000000000e+00,6.222878935709327521e-28,1.188031931996883276e-18,1.358795855287389296e-07,1.400802931622787178e-05,1.393960978427895531e-04,7.915001456264275778e-04,2.633639447378516296e-03,5.405623801235592656e-03,1.017858599559191488e-02,1.795039292068175557e-02,2.859732103389109326e-02,3.907952125496717832e-02,4.870594489165678415e-02,5.629428108897919364e-02,6.257356107317568750e-02,6.826865257400958897e-02,7.350608020848711788e-02,7.847586437835073203e-02,8.307994723480136012e-02,8.744282696464950044e-02,9.163764391415148147e-02,9.562478736254009792e-02,9.952307955905699555e-02,1.032676116927514903e-01,1.069133840460502194e-01,1.105286672010582782e-01,1.140960107250824640e-01,1.176235786978088171e-01,1.211521938876586602e-01,1.247059101472944020e-01,1.282160475587920956e-01,1.317342962123846106e-01,1.353277859705927788e-01,1.388335690768912611e-01,1.423079580488783302e-01,1.458101234571554938e-01,1.492899530635876937e-01,1.526564086129962028e-01,1.559598776295297307e-01,1.590830903569661059e-01,1.617125145917878148e-01,1.642204423527240387e-01,1.662180116140192787e-01,1.678733757182775677e-01,1.690003511133689740e-01,1.695277187368336991e-01,1.694491621186975938e-01,1.689368305613860588e-01,1.675663359679109843e-01,1.657886528626585365e-01,1.636642641348102223e-01,1.610543733740035510e-01,1.580625933235761948e-01,1.548805740456334623e-01,1.515229069258568761e-01,1.481387015584412492e-01,1.446617435629981019e-01,1.411649988386611265e-01,1.376197894104751185e-01,1.341161642196762871e-01,1.305455498186855468e-01,1.270417174274369176e-01,1.234929444632826279e-01,1.199769687954418129e-01,1.163956764042636399e-01,1.127956601798903724e-01,1.091594436649957756e-01,1.054430781475168694e-01,1.016647166999014862e-01,9.780369444538911106e-02,9.388528209254162760e-02,8.983094293462173807e-02,8.561702679999853849e-02,8.116444590958392380e-02,7.658742152190232966e-02,7.164610117780453868e-02,6.630158750813100466e-02,6.039874379551383315e-02,5.369811949503856124e-02,4.526627286322183058e-02,3.506617932494374146e-02,2.311650220084771751e-02,1.294340084873365354e-02,7.185580535914638627e-03,3.541691371085875159e-03,1.075485816633127596e-03,2.376591122102753419e-04,2.659420833210628612e-05,4.258444820806688896e-06,1.613016898607888967e-10,1.696983395344647716e-11,2.037238722252791734e-22,8.734870289484494642e-35,0.000000000000000000e+00,0.000000000000000000e+00,nan
nan,0.000000000000000000e+00,0.000000000000000000e+00,0.000000000000000000e+00,2.136750495912699892e-28,8.115444213793422174e-19,1.473533346143758855e-09,5.075641874427424910e-06,1.071172964314938105e-04,7.115057149874342473e-04,2.499881374477687379e-03,5.302033487272990453e-03,9.209397417837170488e-03,1.597879517855408174e-02,2.584037179505322551e-02,3.705503523040082348e-02,4.619660013029720791e-02,5.436082989228810392e-02,6.094529201015309872e-02,6.672294475371864930e-02,7.206169692297685614e-02,7.696638847337855527e-02,8.161970848889731067e-02,8.597327476324354012e-02,9.010613023747497674e-02,9.409788197467486293e-02,9.794994755038768930e-02,1.016969547412154423e-01,1.053195130832333959e-01,1.088610139414130373e-01,1.123579384911177759e-01,1.158346190755325106e-01,1.192840321498629397e-01,1.226846311657433519e-01,1.260959419665692027e-01,1.294596427481327916e-01,1.328156591611910353e-01,1.361707085818751883e-01,1.394636362770439730e-01,1.427001849323765725e-01,1.459056702028339036e-01,1.489407182298434495e-01,1.518539384936668790e-01,1.545819613811241500e-01,1.569629460613043148e-01,1.592715942355828473e-01,1.610134084486754824e-01,1.624398961535975516e-01,1.632773496493084009e-01,1.636084016546007769e-01,1.637141602433707654e-01,1.631963662151472150e-01,1.619964843039803926e-01,1.605324435141054495e-01,1.586493406185686683e-01,1.563644257440140461e-01,1.537096077152257656e-01,1.509264705943156315e-01,1.479138485000478787e-01,1.447478976856560184e-01,1.415947607238294270e-01,1.382732767032580079e-01,1.350416711239225132e-01,1.316944751282184134e-01,1.283676740735637811e-01,1.249441369766842863e-01,1.215211267833061909e-01,1.180767825738734955e-01,1.146041874120151682e-01,1.110839933113724060e-01,1.075085636087420859e-01,1.038614079595797240e-01,1.001185860968055730e-01,9.633483782448054589e-02,9.240121548300707366e-02,8.836828792606418737e-02,8.409726164617739586e-02,7.970267713964915290e-02,7.510741735790928131e-02,7.008420596928477408e-02,6.460663368370765658e-02,5.856599245848893853e-02,5.148715711308474857e-02,4.289780700997591206e-02,3.234362051952475309e-02,2.077604209258333834e-02,1.270285258967614184e-02,6.183240533625148846e-03,2.744009598293024009e-03,1.146412481384363226e-03,1.729269558770388758e-04,6.750234126586648766e-06,7.174107358714076000e-08,5.355190078814684807e-11,9.165896185085796117e-16,1.699718288749364258e-23,2.466505659151106431e-34,0.000000000000000000e+00,0.000000000000000000e+00,nan
nan,0.000000000000000000e+00,0.000000000000000000e+00,0.000000000000000000e+00,1.290012735063615086e-21,2.797055767592830103e-15,1.586159507780250817e-09,5.247367422144938906e-06,4.101543039755366264e-05,4.346250723594190821e-04,1.630929270224739432e-03,4.931676837187759510e-03,8.505371881248280364e-03,1.458049797820851548e-02,2.214548709844897309e-02,3.354537654995093376e-02,4.394511291561777055e-02,5.223169074488268060e-02,5.903244962530861117e-02,6.497723713043244975e-02,7.029425369022729297e-02,7.531460256420216548e-02,7.991527067860068612e-02,8.435364181534663053e-02,8.847727642626070088e-02,9.243610421651032860e-02,9.627935514931980354e-02,9.998279368969770209e-02,1.035810755568625785e-01,1.070704315074639534e-01,1.104854759319807700e-01,1.138810301357465332e-01,1.172411626486352665e-01,1.204759819698364431e-01,1.238388467008317423e-01,1.270558503606646072e-01,1.302681753229056050e-01,1.333958868329445935e-01,1.365279916313100750e-01,1.394836462194680993e-01,1.423754455258357809e-01,1.452246345302413144e-01,1.478884943579902023e-01,1.502765108926324145e-01,1.524596338990304722e-01,1.544512989906312306e-01,1.559194055204725093e-01,1.571897128205095029e-01,1.578925956847169465e-01,1.584079483943584832e-01,1.583262325116654157e-01,1.577116505627324805e-01,1.568515953873088065e-01,1.556008355411286903e-01,1.538927277278443473e-01,1.517949160028048694e-01,1.495453169473719146e-01,1.469804876287652551e-01,1.443371591427376754e-01,1.414375221589675713e-01,1.384996426077104714e-01,1.354143693923021419e-01,1.323453159904179055e-01,1.291416254847330691e-01,1.258495123547423156e-01,1.226909878499789636e-01,1.194095087741442324e-01,1.160561512563117459e-01,1.126756756073329091e-01,1.091666023356919479e-01,1.057031249270297957e-01,1.020956556997444364e-01,9.842110758380634428e-02,9.464885323276671369e-02,9.076115695725364696e-02,8.669739022757522173e-02,8.248026688468185208e-02,7.803687351644236769e-02,7.338323992197424983e-02,6.833098625644572210e-02,6.262517918717722121e-02,5.648539289687576348e-02,4.926295152359655427e-02,3.968189433135608374e-02,2.880917713140326158e-02,1.747120054849634826e-02,9.889309322536222330e-03,5.124855570281089054e-03,1.997581474970319595e-03,5.551168786374063510e-04,1.021040382835939432e-04,3.496016057759403343e-06,1.013112409537891717e-08,9.246319596207729095e-16,6.398769919197968262e-23,3.455532685810766749e-34,0.000000000000000000e+00,0.000000000000000000e+00,0.000000000000000000e+00,nan
nan,0.000000000000000000e+00,0.000000000000000000e+00,0.000000000000000000e+00,2.821690654801296121e-22,2.919179259551889507e-15,4.854865633471448708e-09,3.131621485730775472e-07,2.154906523892977067e-05,1.870267882806165845e-04,1.259296560220107310e-03,3.669565327357484068e-03,6.686935994528183519e-03,1.130147229776497231e-02,1.805952275060996801e-02,2.956750195370235271e-02,4.055478142092545923e-02,4.972511511229393832e-02,5.683284600805470210e-02,6.294864126172403096e-02,6.845681218117728728e-02,7.346912969528324178e-02,7.807395577195350156e-02,8.249470949703910372e-02,8.662982259369897409e-02,9.060296983262161596e-02,9.443058312488399053e-02,9.807268415217376689e-02,1.016428522212757812e-01,1.051085510933878753e-01,1.084867605711097305e-01,1.117682275438948991e-01,1.150536888882812137e-01,1.182532857269584514e-01,1.214129309736948492e-01,1.245474815811861841e-01,1.275962448018030937e-01,1.305417139677138849e-01,1.334619615357429123e-01,1.362876712753176844e-01,1.388815921505730522e-01,1.415815018510071244e-01,1.439020945929209150e-01,1.460894081202097627e-01,1.481021598734431621e-01,1.497234762192982960e-01,1.511600466698070355e-01,1.522209719129962446e-01,1.529479226166064743e-01,1.532972355626648076e-01,1.532700858106286201e-01,1.527707980437347235e-01,1.519081712919942984e-01,1.508447040704836983e-01,1.492951941494712886e-01,1.474802250011938987e-01,1.454333933197207163e-01,1.431714083382406300e-01,1.406718404818581292e-01,1.380487035697191556e-01,1.353204613098314968e-01,1.324041078727991594e-01,1.295031622864628029e-01,1.264588936329050783e-01,1.234556865582407820e-01,1.203386346893756259e-01,1.171411850394893789e-01,1.139141424563242383e-01,1.105869606430520402e-01,1.072078605735490853e-01,1.037544507811152539e-01,1.002216820202522507e-01,9.656504570743111582e-02,9.282187073955716627e-02,8.896532043087357344e-02,8.491533614065166491e-02,8.068869395796446353e-02,7.617528356029593106e-02,7.141650449429025327e-02,6.630935465463479173e-02,6.059490983589038010e-02,5.378225708704969382e-02,4.609288073535893621e-02,3.608413839567893577e-02,2.419318883608682913e-02,1.459764658769940361e-02,7.307144791453954250e-03,3.847512742380437487e-03,1.854818199209183269e-03,3.879300863427257557e-04,3.457315512475925902e-05,1.230566267786497883e-06,2.530207190569722235e-11,3.394587667531697250e-16,6.645982582622015777e-24,2.597166979337814106e-34,0.000000000000000000e+00,0.000000000000000000e+00,0.000000000000000000e+00,nan
nan,0.000000000000000000e+00,0.000000000000000000e+00,0.000000000000000000e+00,9.888218790401664905e-32,1.175365303255616199e-18,1.387020745483040628e-12,7.154575162054472072e-09,1.539605847797251951e-06,1.395637193991111017e-04,7.601739914024008759e-04,2.993259751128201588e-03,5.599743427412528021e-03,8.548357364336721734e-03,1.404032856134574195e-02,2.542624537993125322e-02,3.652739373334620843e-02,4.663194118965879875e-02,5.401032915942417800e-02,6.063275071824746065e-02,6.628692503668232039e-02,7.135895824844072644e-02,7.609472494034368040e-02,8.047724840129354129e-02,8.466512963122002633e-02,8.860930794465812776e-02,9.241103434315821319e-02,9.606541179003143249e-02,9.959500861395279014e-02,1.030214039204669502e-01,1.063509638177982941e-01,1.096049445181029314e-01,1.127191835377435308e-01,1.158756592677254033e-01,1.189071740105382552e-01,1.219025337801103587e-01,1.248130834294668146e-01,1.275903078501309240e-01,1.304003199631264820e-01,1.329888954349983388e-01,1.354915151571305931e-01,1.378278433331351638e-01,1.400315437531936269e-01,1.421010334484685833e-01,1.438540417331993226e-01,1.453742386075726201e-01,1.465630634612808958e-01,1.474983604411104210e-01,1.481242983185428741e-01,1.484293810198022145e-01,1.484143955137366411e-01,1.480795874616984142e-01,1.472846864159509661e-01,1.462301273564661497e-01,1.449313160529670796e-01,1.432508183009085778e-01,1.414079916383569890e-01,1.393243997435863191e-01,1.370690705420495592e-01,1.346105235618817453e-01,1.321142118953830269e-01,1.294146871230487383e-01,1.266531168084556458e-01,1.237936762153568904e-01,1.208409213107496105e-01,1.178175711164368700e-01,1.147600060372638425e-01,1.116007227332636575e-01,1.083884264405086117e-01,1.050365559575895252e-01,1.016700390990989133e-01,9.817928272210060814e-02,9.458708857128983460e-02,9.084314069635182620e-02,8.697654112142735872e-02,8.293920412300133382e-02,7.868207300320109732e-02,7.419803713704072046e-02,6.921294974566477576e-02,6.392195572294905037e-02,5.799476130569744536e-02,5.123772463154771528e-02,4.279726063102257810e-02,3.232805039069816533e-02,1.985396666951847605e-02,1.138210090315391540e-02,6.231061084947608388e-03,2.729935940911597508e-03,1.404398940777231352e-03,3.619315513426936285e-04,4.355131389061121333e-06,2.787585057941672579e-07,1.345405857092952550e-11,7.012664285870817075e-13,5.069346972276993707e-25,1.776407086472573497e-37,0.000000000000000000e+00,0.000000000000000000e+00,0.000000000000000000e+00,nan
nan,0.000000000000000000e+00,0.000000000000000000e+00,0.000000000000000000e+00,5.726668691845242347e-25,5.788582880326883256e-19,1.899042397573249473e-11,1.116704304359606001e-09,1.544032475173048958e-06,5.862513763830245008e-05,7.894739788514048336e-04,1.998399816552296360e-03,4.546050747458195429e-03,7.452819075327498863e-03,1.136306828598037180e-02,2.048728268069904823e-02,3.237956744521280905e-02,4.280551433481904339e-02,5.123796817553262495e-02,5.805239906271303374e-02,6.386284450800318313e-02,6.911777499357835142e-02,7.383570043177097031e-02,7.830260523549324725e-02,8.251792359291965084e-02,8.650954863269229300e-02,9.028558932227072342e-02,9.391395922245003580e-02,9.740584735170344788e-02,1.008057994826356552e-01,1.040407740851624768e-01,1.072617295612036531e-01,1.103428398103985103e-01,1.133308867519554619e-01,1.162737601359083023e-01,1.191624096888721646e-01,1.219371394953305682e-01,1.246125206521481871e-01,1.272259605679363914e-01,1.296972307597741292e-01,1.320501065754791647e-01,1.342346589075833208e-01,1.362633875285896301e-01,1.380994109095165512e-01,1.397865347278478831e-01,1.411125699129825994e-01,1.421643133636726897e-01,1.430779155282570492e-01,1.436512059148593867e-01,1.438600353672821464e-01,1.438593289557376642e-01,1.434931739207636614e-01,1.427490572382815459e-01,1.419039702268505287e-01,1.406543706588829767e-01,1.390834181157047378e-01,1.374573230649453470e-01,1.354750156179618248e-01,1.334814938755989333e-01,1.312174230376439155e-01,1.288235435819116703e-01,1.262876749800457832e-01,1.237173612806908435e-01,1.209820928880978447e-01,1.181237639172936227e-01,1.152681085746649486e-01,1.122817932388174705e-01,1.092077133942894185e-01,1.060189757787028259e-01,1.027984523002892225e-01,9.945593718680795225e-02,9.597528152186104999e-02,9.243165885043266861e-02,8.872169490330453212e-02,8.487586490002034523e-02,8.077213194564462906e-02,7.649618622842026261e-02,7.192170881452419895e-02,6.692154774107822446e-02,6.135868498922519843e-02,5.515267253740543246e-02,4.768917694949625918e-02,3.880631875422221877e-02,2.744317203921846013e-02,1.769901045685023239e-02,9.414918616932728412e-03,5.093809527112790406e-03,1.852482590984669318e-03,7.037830498149606762e-04,1.320847006074503957e-04,4.334075417433988144e-06,1.365939823226148381e-07,1.063231033482497867e-10,4.979789988588920726e-15,1.355525817356907239e-25,0.000000000000000000e+00,0.000000000000000000e+00,0.000000000000000000e+00,0.000000000000000000e+00,nan
nan,0.000000000000000000e+00,0.000000000000000000e+00,0.000000000000000000e+00,1.395965278075178400e-24,1.720577707021136118e-23,1.498410565583339357e-11,2.136135738658350760e-08,3.516108451236763863e-06,5.810738800469479788e-05,5.077473680611187083e-04,1.428776738766121936e-03,3.478305193161564980e-03,5.864928385292566236e-03,9.107795660653374148e-03,1.663876503437238322e-02,2.758394740632783698e-02,3.885000923431832648e-02,4.774788595468248270e-02,5.513593237030993410e-02,6.115856484729415010e-02,6.656193337213262007e-02,7.148132425440459348e-02,7.591729128149582451e-02,8.015426095817965169e-02,8.421763199921944443e-02,8.798528453923915027e-02,9.161181730253328825e-02,9.509376428467500308e-02,9.841947887833860098e-02,1.016575274619283403e-01,1.047902406214472337e-01,1.078256429268915906e-01,1.107435986329221855e-01,1.135927081290824814e-01,1.163590857803660089e-01,1.190301293570461549e-01,1.215719298031342765e-01,1.240309282874433872e-01,1.263802542799113970e-01,1.285685451505156063e-01,1.305853757911106250e-01,1.325201830025586058e-01,1.341849823608591563e-01,1.357130047984872745e-01,1.369799848351636040e-01,1.380096345130195634e-01,1.387514646198503288e-01,1.392259237508927106e-01,1.395235309260133005e-01,1.394216813908215058e-01,1.391286663938137713e-01,1.385124588438955695e-01,1.376507951726269607e-01,1.365220656839907232e-01,1.352173967738674043e-01,1.335728127826746325e-01,1.318428991276340834e-01,1.299634914712668454e-01,1.278014084723269883e-01,1.255747063447664735e-01,1.231456691192254344e-01,1.206825369411823612e-01,1.180725396445758413e-01,1.153948115862490215e-01,1.125903457285251097e-01,1.096890298341016423e-01,1.066892965656461995e-01,1.035828346750715528e-01,1.004132688463015427e-01,9.709722791477799764e-02,9.367519177749111803e-02,9.012120430482109534e-02,8.643978440088305459e-02,8.256821439421541120e-02,7.847411746067768645e-02,7.407657365062080002e-02,6.940671955965845019e-02,6.431226028042399956e-02,5.852860431028454602e-02,5.194022884005009000e-02,4.401659867927765202e-02,3.452318441572216345e-02,2.408998253907240067e-02,1.535466902614706849e-02,8.763400136006871746e-03,4.151346766380586799e-03,1.598282009399695997e-03,4.791956788370569558e-04,9.219786772641177272e-05,2.250763793914542069e-07,2.017162604993396020e-07,1.515741973624942346e-10,3.194008700186481043e-15,0.000000000000000000e+00,0.000000000000000000e+00,0.000000000000000000e+00,0.000000000000000000e+00,0.000000000000000000e+00,nan
nan,0.000000000000000000e+00,0.000000000000000000e+00,0.000000000000000000e+00,5.386357326097096653e-35,1.479614847131539212e-23,6.400980554557373135e-16,5.766691553102616773e-11,2.000439630480458177e-06,9.616407326164623027e-06,2.320142651171615462e-04,1.026556926329344477e-03,2.401938358862752178e-03,4.562688634202266731e-03,7.750088364548676431e-03,1.378476041083476558e-02,2.222767793096228420e-02,3.424376148321955915e-02,4.378369069266394714e-02,5.170415430865907269e-02,5.819104603874897946e-02,6.370187698720829184e-02,6.876203688261421643e-02,7.333227137190904965e-02,7.768201604965896401e-02,8.171408647142468229e-02,8.553678259821848040e-02,8.915137008018579612e-02,9.261805876274621652e-02,9.590244424291868852e-02,9.912045438893177240e-02,1.022049686741160340e-01,1.051406065456761962e-01,1.080026823703097993e-01,1.107902661445892556e-01,1.134117168025820938e-01,1.160118034875869397e-01,1.184684449716467830e-01,1.208014267121502450e-01,1.230239692690312109e-01,1.251153710315011658e-01,1.270097175061506434e-01,1.287473997027369088e-01,1.303332554664146936e-01,1.317405382088677746e-01,1.328801513376171861e-01,1.338431943426691972e-01,1.345949515953924203e-01,1.350314764391272737e-01,1.352314765650912687e-01,1.351733892022281835e-01,1.349213191288976543e-01,1.343428737672369144e-01,1.335669480333810111e-01,1.325415486301881052e-01,1.312552629665316717e-01,1.297743937511687262e-01,1.281712122683861810e-01,1.263527833900299768e-01,1.243719915699577905e-01,1.222088508217768210e-01,1.199807410958834419e-01,1.176023570965142040e-01,1.151119155755424839e-01,1.125234922690213912e-01,1.097647179247003280e-01,1.069693354009953051e-01,1.040078910616411001e-01,1.010108045358609485e-01,9.787755739430417656e-02,9.461605488167794398e-02,9.123343648154760843e-02,8.767524903379490808e-02,8.398927009536125143e-02,8.002219666921270291e-02,7.587696455852006860e-02,7.152902417830868387e-02,6.666657561598217374e-02,6.130279917995692246e-02,5.527196677874254838e-02,4.834668153729942269e-02,4.007375314804370592e-02,3.010402130411345481e-02,1.950866313144512809e-02,1.142989461550007052e-02,6.339951810613138165e-03,3.379736681559547887e-03,1.517309114080110698e-03,4.625041961254763487e-04,2.070181841333945558e-05,3.375452118866401488e-06,5.491042447003300777e-11,8.564430490437881822e-16,1.111412218034186748e-30,0.000000000000000000e+00,0.000000000000000000e+00,0.000000000000000000e+00,0.000000000000000000e+00,0.000000000000000000e+00,nan
nan,0.000000000000000000e+00,0.000000000000000000e+00,0.000000000000000000e+00,5.235073699839401308e-35,8.088733604574966221e-35,9.777739095058133247e-17,2.634908868748809717e-11,5.233434391670318474e-09,1.209614717181510851e-06,1.366830543236551042e-04,3.892264588852273463e-04,1.456756128744419228e-03,3.621765891297489687e-03,6.334407876969618684e-03,1.084192372677812884e-02,1.729226778318296992e-02,2.887994018597466600e-02,3.878655247204532835e-02,4.782165091843067900e-02,5.461832893402777250e-02,6.043526349378221946e-02,6.570388136739872820e-02,7.053546254395529069e-02,7.490401961552456411e-02,7.905682523155178887e-02,8.288127300992467750e-02,8.652774288369040334e-02,8.999708065013636848e-02,9.327470630393863704e-02,9.644017945734520425e-02,9.948985953447825326e-02,1.024047980770120547e-01,1.051832990631451914e-01,1.078867560553751909e-01,1.104602648453913427e-01,1.129292099832882590e-01,1.152868064596491993e-01,1.175344589913062815e-01,1.196229354961655111e-01,1.215939111072142920e-01,1.234418100405842711e-01,1.250514609306338509e-01,1.265406750715497020e-01,1.277990329514188672e-01,1.288778256579526937e-01,1.297957382127550019e-01,1.304678981037025176e-01,1.308867429773765689e-01,1.310911962595193159e-01,1.310322783628733445e-01,1.307819735060383182e-01,1.302509014896255646e-01,1.295324617118590593e-01,1.285671321350948249e-01,1.274265751550722747e-01,1.260539483093529589e-01,1.245073783143798019e-01,1.228153213089287765e-01,1.209225407848421585e-01,1.189034847267304851e-01,1.167233582209728782e-01,1.144804070664876550e-01,1.120673756721808217e-01,1.095436585368883831e-01,1.069029106576329102e-01,1.041011346375915192e-01,1.012968036729074151e-01,9.833363381809646919e-02,9.520631415317953872e-02,9.198462076993975389e-02,8.857216643274738732e-02,8.505746563432474427e-02,8.130491225788344378e-02,7.735267129487152782e-02,7.313270972454842533e-02,6.861158105094139481e-02,6.361762599355107184e-02,5.799262171737040727e-02,5.168017546843915733e-02,4.414933397171878077e-02,3.462127577278888146e-02,2.425041579748377779e-02,1.398920469489323658e-02,8.469016625007366392e-03,5.027259160540220942e-03,2.785843006111283007e-03,1.243259415041128016e-03,2.197777442897917927e-04,9.022937572162555749e-06,3.782672966026417405e-09,1.376487001588291435e-11,1.310640349070266570e-19,3.625772988086951943e-34,2.643005040100068013e-35,0.000000000000000000e+00,0.000000000000000000e+00,0.000000000000000000e+00,0.000000000000000000e+00,nan
nan,0.000000000000000000e+00,0.000000000000000000e+00,0.000000000000000000e+00,0.000000000000000000e+00,3.173390674837074037e-24,2.107481642560737959e-26,7.296241455900561779e-18,2.239463369910611501e-12,9.576836281372310521e-07,3.610870988593054165e-06,1.061611260130301723e-04,8.928140082210465856e-04,2.087065070289829006e-03,4.489647361801200366e-03,8.039523858014006874e-03,1.313457451121403767e-02,2.337606941106341180e-02,3.327021206410721299e-02,4.305522825497160727e-02,5.081184388507668792e-02,5.691020860380247709e-02,6.244906458610524624e-02,6.742255121316340083e-02,7.204037302056105763e-02,7.618285895170681665e-02,8.009206850036147685e-02,8.371042827350894111e-02,8.719991013582771566e-02,9.048630680146947658e-02,9.366613103720619615e-02,9.664950862055612935e-02,9.950281648106452936e-02,1.022825954475008320e-01,1.048770394599810585e-01,1.073935481292288552e-01,1.098176048902188839e-01,1.120818399906503005e-01,1.142250344697381265e-01,1.162360105799342957e-01,1.180948878448119799e-01,1.198363743703564355e-01,1.213696766804182037e-01,1.227583885583427709e-01,1.239637374612986565e-01,1.249981168677296306e-01,1.258122101856922470e-01,1.263919919086444466e-01,1.268499654555717004e-01,1.269853868291363763e-01,1.269727327632907687e-01,1.267052012943032935e-01,1.262214794153584119e-01,1.255507208120526519e-01,1.246826289077668654e-01,1.235790021974856601e-01,1.223115655194363938e-01,1.208687555477027387e-01,1.192399537953972855e-01,1.174784613341544742e-01,1.155147976229509432e-01,1.134797628673941544e-01,1.112797105070750248e-01,1.089554951710891700e-01,1.064995579906403006e-01,1.039339463768704369e-01,1.012386854929694241e-01,9.844626479947006514e-02,9.547703875023173803e-02,9.240803269393381425e-02,8.916729347604102074e-02,8.578904214638116699e-02,8.223451812616500156e-02,7.847230501524254942e-02,7.446336667828777622e-02,7.019157636718627302e-02,6.549797325876835496e-02,6.016843706706127837e-02,5.415108645895079509e-02,4.715768201876686938e-02,3.904770214781677629e-02,2.844552457236767390e-02,1.927084397250039549e-02,1.138859332684533793e-02,6.606015473184909462e-03,3.681915230851937407e-03,1.882394155988417403e-03,6.935035235516404540e-04,8.646789167934209556e-05,5.187301348152432573e-06,7.206653049489357902e-10,1.128515857451194313e-13,3.602987692686186861e-28,4.757560880500983705e-35,0.000000000000000000e+00,0.000000000000000000e+00,0.000000000000000000e+00,0.000000000000000000e+00,0.000000000000000000e+00,nan
nan,0.000000000000000000e+00,0.000000000000000000e+00,0.000000000000000000e+00,0.000000000000000000e+00,1.162789431605248236e-40,2.046400699442319052e-40,2.986227872177291607e-18,7.224617922870773268e-13,4.396357719586445192e-11,7.937496823372279121e-08,1.564355378144187547e-05,3.202229786839346729e-04,1.096670168443524213e-03,3.343213328963584498e-03,6.057388544291398766e-03,1.038040238823655093e-02,1.774100932142315401e-02,2.662651257750194012e-02,3.752287210729539357e-02,4.609520767890222526e-02,5.301043960090834339e-02,5.890704453965152354e-02,6.416390949049535775e-02,6.868395158063422823e-02,7.308370135624567276e-02,7.705124048269970660e-02,8.075774864430998456e-02,8.422611512999000905e-02,8.758370603130945231e-02,9.068169516563426291e-02,9.367998721317680189e-02,9.652296726560062601e-02,9.920909076845091379e-02,1.018044765493257009e-01,1.042801272739970198e-01,1.065754933011803796e-01,1.087960890383997403e-01,1.108557346783334008e-01,1.127928687720868295e-01,1.146016561196650102e-01,1.162150431200261874e-01,1.177183434717200827e-01,1.190331968147068653e-01,1.201818339670754771e-01,1.211388414234127742e-01,1.219312261624830168e-01,1.224667676464723243e-01,1.228546427506272548e-01,1.229999064026061767e-01,1.229839982615802962e-01,1.227371230094116972e-01,1.223097904985979978e-01,1.216747275877437529e-01,1.208249981204180118e-01,1.197803151567854441e-01,1.185978801197778432e-01,1.172189771356602767e-01,1.156544060673743990e-01,1.139656149251689621e-01,1.121087819060900964e-01,1.101548633414304451e-01,1.080412338582077691e-01,1.057572163765725937e-01,1.033502130752154968e-01,1.008509746529772377e-01,9.817761939271651972e-02,9.544926425898755951e-02,9.253238142612998929e-02,8.947334142940534252e-02,8.624004304432397738e-02,8.285117791232271545e-02,7.923921531965089082e-02,7.549635220528555513e-02,7.136552619612619719e-02,6.676204098384426466e-02,6.200749667014401195e-02,5.622859594419260532e-02,4.995889347106453882e-02,4.224756850347843873e-02,3.297745811982970288e-02,2.197798428948348481e-02,1.408851066149004357e-02,7.991731617302608517e-03,4.681011486592740606e-03,2.635426938155745538e-03,1.049748746009032847e-03,2.548416060642927274e-04,1.075324968783441740e-04,1.550811750932296445e-07,1.202971970727772232e-13,1.897285536423407082e-20,1.156082450526152184e-28,0.000000000000000000e+00,0.000000000000000000e+00,0.000000000000000000e+00,0.000000000000000000e+00,0.000000000000000000e+00,0.000000000000000000e+00,nan
nan,0.000000000000000000e+00,0.000000000000000000e+00,0.000000000000000000e+00,0.000000000000000000e+00,0.000000000000000000e+00,0.000000000000000000e+00,7.387568274907403268e-27,7.688701444864488527e-23,1.488317120357647860e-15,8.429721294875111653e-11,3.293247863276542449e-07,1.623236514214796355e-04,3.912722784866536768e-04,1.612069050042923193e-03,3.967837332106206351e-03,7.042044828924152317e-03,1.233895058469276079e-02,1.985414095628394021e-02,3.107169534230928842e-02,4.089735809687496115e-02,4.856306687122274174e-02,5.489587755308751593e-02,6.035641986970043116e-02,6.527646556750131557e-02,6.966379112962957365e-02,7.376957564561850700e-02,7.756326854012352001e-02,8.112741889022270780e-02,8.443937322977695947e-02,8.759137158104372822e-02,9.057083709278035411e-02,9.340348403515080777e-02,9.609385050908030024e-02,9.861448815363708931e-02,1.010179710839287648e-01,1.032799460936406621e-01,1.054421477719173217e-01,1.074183775671248287e-01,1.093193924489528346e-01,1.110367913026697045e-01,1.126055101036112921e-01,1.140262093980003999e-01,1.153034192544084430e-01,1.163768496788791240e-01,1.173109113975556173e-01,1.180174928442581650e-01,1.185681851933646502e-01,1.188979800849870594e-01,1.190682172209880235e-01,1.190240197011948053e-01,1.187707756115069652e-01,1.184126552583709829e-01,1.178047022178356079e-01,1.169613728043263634e-01,1.159792456462991478e-01,1.148503237213782391e-01,1.135326697346287356e-01,1.120714241958467167e-01,1.104472313256478488e-01,1.086870364051255311e-01,1.067640264033813541e-01,1.046769463020962160e-01,1.024682407544045826e-01,1.001294661970060229e-01,9.763750889381804521e-02,9.503892307002473339e-02,9.230343714882460748e-02,8.942024411886741186e-02,8.633170077441934542e-02,8.314268309720884709e-02,7.971953047859577091e-02,7.599724383214873091e-02,7.221063123139516426e-02,6.797007004782379402e-02,6.329771981036587392e-02,5.812380901263046462e-02,5.208132757900006682e-02,4.457065065393251563e-02,3.612722982680620365e-02,2.625125485319942248e-02,1.681994816266864021e-02,1.078070233728955878e-02,6.122936698629104051e-03,3.107166286525955487e-03,1.540564676432215488e-03,4.627722288091602786e-04,9.437543823012489437e-05,3.832938272857273676e-06,2.606986592282832188e-09,7.414218317738859998e-11,2.854628487451701840e-29,0.000000000000000000e+00,0.000000000000000000e+00,0.000000000000000000e+00,0.000000000000000000e+00,0.000000000000000000e+00,0.000000000000000000e+00,0.000000000000000000e+00,nan
nan,0.000000000000000000e+00,0.000000000000000000e+00,0.000000000000000000e+00,0.000000000000000000e+00,0.000000000000000000e+00,0.000000000000000000e+00,0.000000000000000000e+00,3.125227170781040976e-23,3.331120183277992618e-16,1.052299255889153892e-11,6.568671390895300354e-08,5.995519079289692775e-06,8.648178042253538034e-05,8.752616567965775278e-04,2.351104635076620326e-03,4.718081839386429992e-03,8.727242896671745173e-03,1.409723554418604134e-02,2.313207546732073266e-02,3.371637077645339015e-02,4.299964331246020066e-02,4.993935805637933489e-02,5.620388774047202496e-02,6.129408342898558237e-02,6.593847873954528094e-02,7.023201930181781349e-02,7.418681028084075924e-02,7.776582977858689794e-02,8.111639913384394163e-02,8.434426886134496759e-02,8.729916933955342295e-02,9.012845245863980448e-02,9.280227764972498461e-02,9.531067899579737102e-02,9.766762316004987121e-02,9.991006549388609104e-02,1.019534113058832292e-01,1.039498810856421263e-01,1.057300365251806207e-01,1.074393930249275958e-01,1.089545025043915233e-01,1.102905327442479239e-01,1.115197595241385897e-01,1.125501426509363800e-01,1.134413467371525597e-01,1.141230270061326657e-01,1.146483388209040555e-01,1.149834484711042548e-01,1.151180266042164391e-01,1.150864891378479693e-01,1.148839417078904857e-01,1.145129327578416345e-01,1.139358306421387745e-01,1.131343912686664926e-01,1.121953874050390099e-01,1.111183239504533182e-01,1.098397412144934415e-01,1.084477758894134142e-01,1.068685820425382543e-01,1.051415843253257071e-01,1.032436555506001524e-01,1.012720307529780817e-01,9.910759254401393936e-02,9.677318173009812063e-02,9.439991084887798534e-02,9.181682639672146540e-02,8.905591768156775889e-02,8.615820441047439271e-02,8.307038884492821962e-02,7.976898792774458902e-02,7.632310821706360382e-02,7.253805209618485739e-02,6.856855067894432332e-02,6.418335181695333791e-02,5.922192271959908494e-02,5.378257872756359720e-02,4.690979407252764133e-02,3.884230720150242538e-02,2.992936857304283327e-02,1.967761717251908724e-02,1.367555265909023605e-02,7.659019563083335584e-03,4.731531230602476108e-03,1.909220919219288895e-03,7.510771278565547219e-04,1.544310058428884688e-04,8.053851793059752269e-06,5.320505861380360736e-08,2.867179998995109578e-09,1.117629254579979013e-14,2.052982092947195841e-21,0.000000000000000000e+00,0.000000000000000000e+00,0.000000000000000000e+00,0.000000000000000000e+00,0.000000000000000000e+00,0.000000000000000000e+00,0.000000000000000000e+00,nan
nan,0.000000000000000000e+00,0.000000000000000000e+00,0.000000000000000000e+00,0.000000000000000000e+00,0.000000000000000000e+00,0.000000000000000000e+00,0.000000000000000000e+00,1.782479080422807906e-23,5.072790008288961769e-17,1.247383294138019727e-11,5.489199860715933324e-09,1.143993111098266487e-06,1.283530224490901357e-04,3.874562087242227996e-04,1.703527151005895324e-03,3.209126023350418466e-03,5.821626837826322960e-03,9.531547743589238383e-03,1.561407733135793813e-02,2.649931167835834975e-02,3.680658479993138138e-02,4.433722909971266751e-02,5.113239881591191693e-02,5.693099694113023385e-02,6.193341560849199151e-02,6.632434830925072744e-02,7.051863233135909070e-02,7.420543016585595675e-02,7.759956669699019649e-02,8.085280911624134759e-02,8.384785859454485513e-02,8.670427689372683933e-02,8.935419314102049926e-02,9.187584628030351364e-02,9.424267759887167140e-02,9.647129504969741143e-02,9.848946686705570275e-02,1.003918292590976202e-01,1.021462107288768906e-01,1.037782080727078227e-01,1.052515965498394823e-01,1.065671002594856254e-01,1.077375456466744819e-01,1.087404580319797642e-01,1.095941605329510682e-01,1.102434232802817354e-01,1.107429521695382779e-01,1.110578941756714955e-01,1.111998602076514076e-01,1.111809820140396421e-01,1.109373417070800838e-01,1.106036810575572460e-01,1.100333145853240879e-01,1.092899301108579552e-01,1.083953175987521084e-01,1.073380737064760088e-01,1.061309842745420257e-01,1.047592461155999882e-01,1.032360017062957241e-01,1.015187587204241237e-01,9.969396241424001437e-02,9.772316441915088192e-02,9.562143752162617638e-02,9.333718320861138229e-02,9.090296251428731100e-02,8.836682797535730383e-02,8.565676119679048461e-02,8.273318546158348052e-02,7.958624207850387156e-02,7.627324876284771737e-02,7.270142588423456065e-02,6.888181627310767385e-02,6.468541327322592516e-02,6.000910059832060411e-02,5.485461959357394723e-02,4.864956253153402549e-02,4.094107588091801253e-02,3.201209133647287680e-02,2.262825676716539308e-02,1.441926623687959236e-02,8.664188524787177006e-03,5.334528615907696211e-03,2.775859963168231248e-03,1.204011552529617602e-03,2.346940019470979729e-04,3.717169948065976161e-05,1.210070050292391427e-05,7.070020257936793460e-10,9.643543581280216094e-13,2.967812484385816228e-13,1.555842125554835549e-21,0.000000000000000000e+00,0.000000000000000000e+00,0.000000000000000000e+00,0.000000000000000000e+00,0.000000000000000000e+00,0.000000000000000000e+00,0.000000000000000000e+00,nan
nan,0.000000000000000000e+00,0.000000000000000000e+00,0.000000000000000000e+00,0.000000000000000000e+00,0.000000000000000000e+00,0.000000000000000000e+00,0.000000000000000000e+00,7.913638846592680510e-36,9.807007482335760827e-17,8.883977061852656733e-17,4.137765928178456163e-12,1.005164212799445486e-06,1.548359878763134301e-05,1.386041151213968071e-04,9.527938721373391913e-04,1.752128877404137775e-03,3.734995580763409220e-03,6.701225294501214104e-03,1.063741118533832221e-02,1.802189140270810813e-02,2.821925418986251377e-02,3.765479931518833645e-02,4.560699222751916915e-02,5.192288401796847641e-02,5.740751934890908625e-02,6.213397855024126171e-02,6.640597966895737947e-02,7.034539840351665407e-02,7.387803622887550992e-02,7.712248569368516937e-02,8.023620653515431411e-02,8.306227527669313160e-02,8.579799011327381153e-02,8.827683484468926145e-02,9.066072658793730699e-02,9.288003704135006089e-02,9.485071812386089429e-02,9.671564352066158721e-02,9.843835783199997302e-02,1.000724988995081999e-01,1.014999516803639645e-01,1.027588251942263831e-01,1.039021272481722435e-01,1.048927627470510604e-01,1.056971599550086127e-01,1.063429678641846510e-01,1.068255048069873536e-01,1.071209718734484478e-01,1.072681156654445578e-01,1.072566120241752463e-01,1.070188452805206358e-01,1.066647712389220126e-01,1.061068802276861345e-01,1.054463917749009494e-01,1.045631649844327854e-01,1.035551940184541303e-01,1.023466756370378372e-01,1.010162591492410888e-01,9.953060954855447173e-02,9.784606721799274376e-02,9.602640729515235507e-02,9.408996221154564132e-02,9.196931378658816658e-02,8.971962005564275422e-02,8.733128765461642407e-02,8.477708139529945008e-02,8.198509081342805760e-02,7.903781397260919994e-02,7.586227083992881648e-02,7.250768229407647536e-02,6.881969035530112466e-02,6.472227160690693926e-02,6.039488745680220844e-02,5.534435329435313800e-02,4.950423185077953286e-02,4.277741524039138654e-02,3.388177720864128661e-02,2.361706737124682348e-02,1.451085111119573660e-02,1.017599257709141981e-02,5.901807166058819706e-03,3.065609200516443249e-03,1.482956657033738732e-03,4.764456900152818199e-04,1.230457232515427336e-04,5.068699164270013983e-06,2.682478480210764252e-09,3.121813995916448917e-13,8.690645214579291362e-20,9.554329085631606465e-23,0.000000000000000000e+00,0.000000000000000000e+00,0.000000000000000000e+00,0.000000000000000000e+00,0.000000000000000000e+00,0.000000000000000000e+00,0.000000000000000000e+00,0.000000000000000000e+00,nan
nan,0.000000000000000000e+00,0.000000000000000000e+00,0.000000000000000000e+00,0.000000000000000000e+00,0.000000000000000000e+00,0.000000000000000000e+00,0.000000000000000000e+00,0.000000000000000000e+00,2.451346783540623936e-26,2.609673607852769741e-18,2.353269975475923408e-12,2.608220752461133789e-09,5.980659148478807197e-06,3.954207414951716923e-05,2.740828369090373339e-04,9.983106710149181919e-04,2.474627984162276924e-03,4.585659728633240291e-03,7.357345125261574061e-03,1.292985514573278746e-02,1.919575500566132048e-02,2.936800482055589023e-02,3.869002784399819955e-02,4.605769257234811065e-02,5.182340466637634646e-02,5.736159257489460706e-02,6.191877372105192290e-02,6.602166539313543414e-02,6.970925552860399166e-02,7.324432239477433881e-02,7.633806667737549900e-02,7.924512334450160844e-02,8.199855149568915924e-02,8.455954433493247102e-02,8.688229053300963733e-02,8.909194285694085891e-02,9.108280281554999303e-02,9.295391871330063727e-02,9.470195679981514847e-02,9.624736617821610940e-02,9.766987263539650410e-02,9.894463030967663719e-02,1.000095067198029791e-01,1.009609151710099129e-01,1.017532724525743726e-01,1.023908705118564966e-01,1.028573592914525936e-01,1.031590234566050757e-01,1.033052576878327189e-01,1.032480861732883448e-01,1.030481064075314396e-01,1.027065951753044354e-01,1.022145706508239688e-01,1.015120036038511253e-01,1.006557635344771939e-01,9.967092367751587134e-02,9.850472740415419648e-02,9.720333503841821488e-02,9.571745596013891966e-02,9.406624939249597084e-02,9.228536976408491244e-02,9.032529040649434071e-02,8.825896630771212781e-02,8.601960531498682727e-02,8.357311961322926031e-02,8.098212842175246673e-02,7.816019751128355786e-02,7.511244895627761098e-02,7.191476270336742693e-02,6.830671582209113524e-02,6.453583079067701234e-02,6.003565805586008608e-02,5.544231504809069011e-02,4.971114617556288140e-02,4.322191836847375651e-02,3.501919292034104403e-02,2.545839351359541897e-02,1.691074270940607846e-02,1.012065714718467235e-02,6.377457036544758977e-03,3.818051293152584930e-03,1.836943155674663000e-03,6.280790796697303686e-04,2.376457818526158858e-04,9.689027331910839985e-06,1.183405665813082972e-07,1.316477796731200294e-10,1.926624494847413857e-13,2.646545327437777991e-23,3.345193764066342419e-32,0.000000000000000000e+00,0.000000000000000000e+00,0.000000000000000000e+00,0.000000000000000000e+00,0.000000000000000000e+00,0.000000000000000000e+00,0.000000000000000000e+00,0.000000000000000000e+00,nan
nan,0.000000000000000000e+00,0.000000000000000000e+00,0.000000000000000000e+00,0.000000000000000000e+00,0.000000000000000000e+00,0.000000000000000000e+00,0.000000000000000000e+00,0.000000000000000000e+00,0.000000000000000000e+00,1.284110402348547853e-38,9.422613998789967817e-18,1.380558548593450496e-09,3.161077614449689137e-08,7.941649721012333395e-06,1.016260985363338562e-04,3.445284939381117444e-04,1.412900081204362598e-03,3.344224870770016664e-03,5.226365981094418557e-03,7.669514913706154680e-03,1.317698440146569325e-02,2.087893027206369836e-02,3.050215737918839792e-02,3.882322973347693967e-02,4.587973790345202529e-02,5.187916899653882002e-02,5.678180955584663514e-02,6.124309843002555265e-02,6.527761091728427612e-02,6.889255173144219480e-02,7.222486742675114646e-02,7.516416958774048418e-02,7.800573075527407474e-02,8.055145105865121891e-02,8.300312186819266969e-02,8.519010105332748550e-02,8.719774298192452255e-02,8.905864278628054798e-02,9.076350926447514234e-02,9.234370865531071892e-02,9.372960768189476932e-02,9.498340023164683621e-02,9.606565872988936938e-02,9.696911158269669317e-02,9.775303504208888994e-02,9.837895782493369379e-02,9.880165852413286265e-02,9.912621283038038078e-02,9.924564711007136109e-02,9.921780386242076699e-02,9.904361443196108006e-02,9.870934478335093021e-02,9.815904146197940161e-02,9.750925455135149578e-02,9.669770907123362291e-02,9.569297898951453774e-02,9.457232939556979578e-02,9.324080299278483808e-02,9.172526868462180238e-02,9.012738694199626255e-02,8.837344723182939676e-02,8.642032856142345398e-02,8.432617392941782475e-02,8.205612399283333802e-02,7.960388301405715850e-02,7.693285522455566017e-02,7.406555055429579759e-02,7.097177043751101699e-02,6.755767414270688609e-02,6.396018610675530125e-02,5.972169529925384912e-02,5.512173172811289656e-02,4.963845184262555277e-02,4.273745825368714668e-02,3.488563863674631893e-02,2.628822555347396644e-02,1.722854102385078245e-02,1.113349530854187627e-02,7.630498160773314248e-03,4.528038141800954514e-03,2.064626534903362884e-03,9.752957723323268284e-04,3.297845532978724292e-04,3.505964944840547250e-05,6.339116349553157744e-07,2.199470311603318382e-09,1.646131434672398536e-14,1.418551478416646520e-20,2.939836014386379158e-22,0.000000000000000000e+00,0.000000000000000000e+00,0.000000000000000000e+00,0.000000000000000000e+00,0.000000000000000000e+00,0.000000000000000000e+00,0.000000000000000000e+00,0.000000000000000000e+00,0.000000000000000000e+00,nan
nan,0.000000000000000000e+00,0.000000000000000000e+00,0.000000000000000000e+00,0.000000000000000000e+00,0.000000000000000000e+00,0.000000000000000000e+00,0.000000000000000000e+00,0.000000000000000000e+00,0.000000000000000000e+00,2.790378660617060538e-27,1.255907692034440275e-18,2.192013946942059309e-13,1.380424359546302870e-09,5.374300400990145004e-07,9.108769166686731217e-06,1.117286028977181842e-04,5.118628283533142994e-04,1.979955721779153629e-03,3.774735979891128725e-03,6.156758179116587903e-03,9.177799813495784997e-03,1.403013405117202808e-02,2.166531401279159219e-02,3.044990742693216151e-02,3.846906291957814111e-02,4.534899813593040729e-02,5.121031523796516771e-02,5.601924617096423753e-02,6.036819390226026011e-02,6.426809141733180741e-02,6.760670274989398487e-02,7.088580546266647076e-02,7.375563872252076381e-02,7.634855092904395402e-02,7.886551534973630651e-02,8.109478126512088825e-02,8.312653513534792871e-02,8.497376199562720056e-02,8.669763568698268807e-02,8.825304439343635565e-02,8.966380077273601590e-02,9.086333165567778147e-02,9.198613657128885956e-02,9.290475996593108854e-02,9.364607127784968510e-02,9.424890874146582553e-02,9.473377497437932004e-02,9.500478874527307216e-02,9.512959230017592471e-02,9.510054216853308651e-02,9.491955799850804176e-02,9.452569987711245680e-02,9.407039852201315444e-02,9.337446533827477302e-02,9.255791687075515251e-02,9.156984135745442621e-02,9.044784683553687421e-02,8.915155246192960070e-02,8.770319993863408270e-02,8.604808258917025221e-02,8.427478807369462310e-02,8.232331816640492406e-02,8.017391826482195283e-02,7.784716725515754276e-02,7.530520837428256176e-02,7.259359003079079997e-02,6.963066412984775244e-02,6.640932674115908319e-02,6.285270403005729922e-02,5.904458145079496956e-02,5.443243952735812852e-02,4.927414074185278853e-02,4.316347085455680271e-02,3.510455671860262389e-02,2.657999686297321529e-02,1.831741679286705629e-02,1.283994643806796523e-02,8.168064661707677421e-03,5.533517780836027730e-03,3.059468829071951800e-03,1.218860617545902431e-03,4.489701026611550008e-04,6.025578213879255284e-05,7.297167355093367007e-07,2.666429251551507967e-09,1.918063831579454430e-09,2.324344743643139021e-19,6.037390002541975178e-23,8.899439640033575585e-33,0.000000000000000000e+00,0.000000000000000000e+00,0.000000000000000000e+00,0.000000000000000000e+00,0.000000000000000000e+00,0.000000000000000000e+00,0.000000000000000000e+00,0.000000000000000000e+00,0.000000000000000000e+00,nan
nan,0.000000000000000000e+00,0.000000000000000000e+00,0.000000000000000000e+00,0.000000000000000000e+00,0.000000000000000000e+00,0.000000000000000000e+00,0.000000000000000000e+00,0.000000000000000000e+00,0.000000000000000000e+00,1.559129494135341307e-27,1.587580902496304819e-20,5.932855015018540322e-14,2.261899048092764595e-13,1.421545056694207252e-09,1.279935796979251675e-06,9.356409997385188714e-06,3.010585664205509145e-04,8.603521340932473484e-04,2.359516745661957397e-03,4.176942155047318195e-03,6.626650581891092157e-03,9.700343640066281387e-03,1.333918365681317948e-02,2.121631077741591154e-02,2.981671743027143259e-02,3.748901730395857307e-02,4.398546070909761102e-02,4.997446833971853908e-02,5.486358338311907168e-02,5.898747865095456400e-02,6.277644361904474724e-02,6.604801302335017166e-02,6.915856710273472763e-02,7.184441869439386896e-02,7.444611935597522656e-02,7.675207086495623721e-02,7.885905003382967515e-02,8.071693292807774478e-02,8.247394741427804821e-02,8.402292258381409418e-02,8.541269908326512561e-02,8.666384589416958883e-02,8.776540157222655070e-02,8.865341470383983347e-02,8.941388978228786977e-02,9.006330205969506619e-02,9.050245968767831051e-02,9.074894817176795692e-02,9.090520168556120995e-02,9.088561374581599628e-02,9.065979187891029523e-02,9.032217617118076802e-02,8.983615442756812119e-02,8.918128503693478759e-02,8.831517931530419308e-02,8.736270915660415692e-02,8.617491910261365629e-02,8.490061251432608203e-02,8.344594336170009508e-02,8.178248067394389142e-02,7.999313375200749199e-02,7.801799702990978858e-02,7.578951840096184722e-02,7.343254312548455620e-02,7.077000342932679433e-02,6.792240536501226167e-02,6.481202106088292114e-02,6.145792874503095554e-02,5.750079770213012420e-02,5.330713701749001387e-02,4.833045875415863113e-02,4.244777073832041447e-02,3.477032157789640421e-02,2.598699357213905478e-02,1.910296100814133646e-02,1.234249312271633314e-02,8.531220531428837517e-03,5.538139930856970580e-03,3.733280018433776919e-03,1.684955945921158159e-03,5.699877930613989844e-04,1.989409061128528705e-04,1.045361402638918201e-05,4.420435334996317651e-08,4.242623941183197071e-13,4.973707416603505542e-19,3.374034430506452677e-28,3.518875850705870907e-29,6.036871600894221455e-34,0.000000000000000000e+00,0.000000000000000000e+00,0.000000000000000000e+00,0.000000000000000000e+00,0.000000000000000000e+00,0.000000000000000000e+00,0.000000000000000000e+00,0.000000000000000000e+00,0.000000000000000000e+00,nan
nan,0.000000000000000000e+00,0.000000000000000000e+00,0.000000000000000000e+00,0.000000000000000000e+00,0.000000000000000000e+00,0.000000000000000000e+00,0.000000000000000000e+00,0.000000000000000000e+00,0.000000000000000000e+00,0.000000000000000000e+00,6.098820584968296516e-21,1.470853291016525662e-28,3.725601477657383828e-15,6.133192050220110028e-13,2.917687003573829243e-09,1.136098883907448512e-06,4.380730113290366316e-05,3.257751412411154734e-04,1.163547124454685075e-03,2.455381816884852266e-03,4.394627252198989031e-03,6.904491947843491642e-03,9.586319222541900970e-03,1.418570163381914842e-02,2.176358078937649237e-02,2.899555223068237680e-02,3.655700812694576834e-02,4.268090598067994512e-02,4.827380626227469745e-02,5.297681707485621394e-02,5.717241698027016039e-02,6.072624755696719168e-02,6.399666062501868646e-02,6.708753819178231437e-02,6.962615571791455626e-02,7.210411117016146676e-02,7.426406447406530553e-02,7.624011548230551216e-02,7.799788372591082153e-02,7.960268352881218201e-02,8.103435565699759757e-02,8.224185982756132551e-02,8.331817291978643736e-02,8.423766137335744753e-02,8.501148915935370642e-02,8.565469312762524767e-02,8.609503424929609849e-02,8.636957683130146168e-02,8.648515830229455692e-02,8.646676077080306388e-02,8.630276494286778788e-02,8.592081366594057912e-02,8.545121563135954501e-02,8.479026064165419430e-02,8.392653776918114483e-02,8.294692302671777262e-02,8.181848909148291271e-02,8.042705035943242819e-02,7.892137228460741061e-02,7.728809486826913877e-02,7.542212155449300182e-02,7.342718911909008883e-02,7.115973325752093792e-02,6.854375377205439157e-02,6.578918095906979846e-02,6.273330102488754167e-02,5.952311342936393579e-02,5.569540969628704319e-02,5.153044849411594214e-02,4.626457512945535838e-02,4.096006406085514473e-02,3.394713250265161270e-02,2.628590618842577969e-02,1.827833081962408276e-02,1.288462347704688593e-02,9.074147780946827460e-03,5.910847726078107683e-03,3.631897325534885323e-03,1.865523771677034780e-03,7.459923887483445055e-04,2.255931241623190234e-04,2.743286091616293151e-05,3.318524445407625312e-07,4.385186510528408968e-10,1.741957306297051038e-14,1.141777194926501045e-20,1.804516854718118225e-21,0.000000000000000000e+00,0.000000000000000000e+00,0.000000000000000000e+00,0.000000000000000000e+00,0.000000000000000000e+00,0.000000000000000000e+00,0.000000000000000000e+00,0.000000000000000000e+00,0.000000000000000000e+00,0.000000000000000000e+00,0.000000000000000000e+00,nan
nan,0.000000000000000000e+00,0.000000000000000000e+00,0.000000000000000000e+00,0.000000000000000000e+00,0.000000000000000000e+00,0.000000000000000000e+00,0.000000000000000000e+00,0.000000000000000000e+00,0.000000000000000000e+00,0.000000000000000000e+00,0.000000000000000000e+00,0.000000000000000000e+00,1.086437282187014800e-28,2.304273243754668027e-13,3.405019915194480944e-09,1.263555242676430161e-08,1.994575652504975329e-06,7.087893853164981158e-05,4.221039647626583869e-04,1.331872763692392965e-03,2.832620728621836146e-03,4.855052617691434785e-03,7.232121630073173532e-03,1.052473808394251316e-02,1.448715592253750455e-02,1.977076090440253384e-02,2.747799741468304885e-02,3.463618705112130741e-02,4.049585044956380969e-02,4.578376956055783126e-02,5.054440353693904348e-02,5.458223232722643481e-02,5.832327756262418311e-02,6.167646764594962583e-02,6.456667251853141776e-02,6.710918856609732197e-02,6.939553086495758860e-02,7.136501428740232855e-02,7.324249535671736866e-02,7.488834390308278521e-02,7.638145409731184055e-02,7.756419062277675192e-02,7.873598138450840778e-02,7.967087745114712072e-02,8.046390521232239801e-02,8.104138856797998836e-02,8.150441895246782198e-02,8.178775975234237050e-02,8.194174417475837136e-02,8.191010426224934471e-02,8.173382453320757191e-02,8.137904569220831552e-02,8.083545535160448214e-02,8.011825322742660571e-02,7.928509238288175553e-02,7.835990971405501493e-02,7.713137003777593981e-02,7.579455831692584467e-02,7.422414817555142430e-02,7.244899295352055790e-02,7.049691520543052703e-02,6.838466495265568823e-02,6.594639516653644229e-02,6.327226832119724198e-02,6.013367128674997758e-02,5.668698708995273394e-02,5.336166609097446611e-02,4.939289148866712192e-02,4.406016113532622291e-02,3.865557226825242637e-02,3.179687333473431993e-02,2.412287677112677498e-02,1.734305361995160111e-02,1.226677977390007099e-02,8.957631716170279951e-03,6.466057263106434957e-03,3.748939609604531962e-03,1.995208417333456906e-03,9.407295260465422214e-04,2.727904652009866416e-04,2.783744446108249242e-05,7.917323010009318870e-07,2.334946414764434618e-09,3.072204208476396786e-13,8.357436627971770813e-22,9.831702202292762708e-31,0.000000000000000000e+00,0.000000000000000000e+00,0.000000000000000000e+00,0.000000000000000000e+00,0.000000000000000000e+00,0.000000000000000000e+00,0.000000000000000000e+00,0.000000000000000000e+00,0.000000000000000000e+00,0.000000000000000000e+00,0.000000000000000000e+00,0.000000000000000000e+00,nan
nan,0.000000000000000000e+00,0.000000000000000000e+00,0.000000000000000000e+00,0.000000000000000000e+00,0.000000000000000000e+00,0.000000000000000000e+00,0.000000000000000000e+00,0.000000000000000000e+00,0.000000000000000000e+00,0.000000000000000000e+00,0.000000000000000000e+00,0.000000000000000000e+00,0.000000000000000000e+00,5.684150054110305092e-27,4.768583503268568662e-18,2.578599492582713102e-12,2.192157995991332517e-07,1.323239148438080797e-05,1.375498204705222184e-04,5.467257033332786290e-04,1.384362586026163236e-03,2.879603999122000955e-03,5.092847189445701486e-03,7.232428241137727788e-03,1.004210654703874099e-02,1.244900684458700481e-02,1.864191216328140929e-02,2.528755889211319399e-02,3.139137338497597490e-02,3.749086037622244294e-02,4.269300541763931811e-02,4.748259284994495177e-02,5.186698894789992104e-02,5.556064788594306664e-02,5.866791361463703780e-02,6.158098735141000896e-02,6.396096494733774507e-02,6.617262837379310481e-02,6.806432275396320786e-02,6.987914746456089232e-02,7.136147108241998327e-02,7.259359074003199352e-02,7.379282847836793335e-02,7.479869260598173697e-02,7.557215732001421049e-02,7.623485345950756220e-02,7.670157911952835139e-02,7.696500578910331347e-02,7.708071744564048977e-02,7.712037346527383930e-02,7.693352653395009455e-02,7.648571669996154232e-02,7.601303369548102762e-02,7.532299900060550335e-02,7.441367406372087490e-02,7.339706892420870543e-02,7.212941877937846524e-02,7.073201504827825170e-02,6.909636753717746105e-02,6.725926332687283404e-02,6.516942176403915654e-02,6.264279811728744318e-02,6.013045676561326602e-02,5.726693786943980180e-02,5.373746624265220151e-02,4.922715595783914988e-02,4.583241203492144367e-02,4.097504604589577437e-02,3.518839177637263227e-02,2.859804627937777635e-02,2.120490842741193371e-02,1.534963321758343359e-02,1.083033042802292005e-02,7.700745799832327265e-03,5.397431912615841682e-03,3.519056125790179929e-03,1.891278479516086486e-03,9.910736144440376177e-04,2.421550630507074788e-04,8.776791005927491612e-05,2.870113322681322488e-06,2.523347783640507503e-09,1.103706724186458300e-10,4.334760733197309266e-19,4.238453831238733044e-28,0.000000000000000000e+00,0.000000000000000000e+00,0.000000000000000000e+00,0.000000000000000000e+00,0.000000000000000000e+00,0.000000000000000000e+00,0.000000000000000000e+00,0.000000000000000000e+00,0.000000000000000000e+00,0.000000000000000000e+00,0.000000000000000000e+00,0.000000000000000000e+00,0.000000000000000000e+00,nan
nan,0.000000000000000000e+00,0.000000000000000000e+00,0.000000000000000000e+00,0.000000000000000000e+00,0.000000000000000000e+00,0.000000000000000000e+00,0.000000000000000000e+00,0.000000000000000000e+00,0.000000000000000000e+00,0.000000000000000000e+00,0.000000000000000000e+00,0.000000000000000000e+00,0.000000000000000000e+00,0.000000000000000000e+00,2.725089707115986459e-18,2.199669506045905501e-10,1.654441712063215714e-13,1.067339478855798825e-07,5.190180369209661963e-06,1.081352494949890477e-04,5.141021945920376925e-04,1.456508699839297863e-03,3.065534798292996778e-03,4.621716755633484275e-03,6.428977072193028247e-03,8.415989328577438283e-03,1.183292478789583352e-02,1.670027485079189286e-02,2.140524302815328267e-02,2.748525177254856205e-02,3.321974501756187748e-02,3.873721393601920610e-02,4.387367418213895809e-02,4.849182791350657717e-02,5.197876929588456096e-02,5.493573310876440075e-02,5.798223712427548471e-02,6.018693784117043477e-02,6.243906082403866131e-02,6.417028843579972164e-02,6.590114403546890043e-02,6.735493055188421230e-02,6.849231800545274584e-02,6.953710675994673185e-02,7.035304228339615829e-02,7.103256165243349018e-02,7.149887297594825775e-02,7.180720513204151556e-02,7.191180203215040423e-02,7.189457831731557724e-02,7.167841149710074689e-02,7.136777051369577740e-02,7.082834743078403328e-02,6.997560734115222669e-02,6.907786934982035332e-02,6.793675288691497505e-02,6.667579208753694753e-02,6.529404560003033986e-02,6.351126378185249777e-02,6.157169500359193498e-02,5.927876541823143275e-02,5.660479161880038745e-02,5.359388601438148242e-02,5.003066086154704661e-02,4.613901368807530462e-02,4.252626091619153559e-02,3.619015871407917778e-02,3.043348191979474565e-02,2.382798787595256929e-02,1.722546672341358429e-02,1.315439175509692214e-02,9.945593816804022824e-03,7.227777396560825310e-03,4.673390917225152090e-03,2.744522434859882586e-03,1.360492585881803614e-03,8.011788158880714513e-04,2.459989309191434599e-04,4.118498131166546894e-05,2.095793690674674124e-06,3.334154201010939907e-08,1.642562736432373706e-09,5.554217498230525245e-14,1.286450550248564862e-19,0.000000000000000000e+00,0.000000000000000000e+00,0.000000000000000000e+00,0.000000000000000000e+00,0.000000000000000000e+00,0.000000000000000000e+00,0.000000000000000000e+00,0.000000000000000000e+00,0.000000000000000000e+00,0.000000000000000000e+00,0.000000000000000000e+00,0.000000000000000000e+00,0.000000000000000000e+00,0.000000000000000000e+00,nan
nan,0.000000000000000000e+00,0.000000000000000000e+00,0.000000000000000000e+00,0.000000000000000000e+00,0.000000000000000000e+00,0.000000000000000000e+00,0.000000000000000000e+00,0.000000000000000000e+00,0.000000000000000000e+00,0.000000000000000000e+00,0.000000000000000000e+00,0.000000000000000000e+00,0.000000000000000000e+00,0.000000000000000000e+00,1.487075733504019327e-39,1.032517577974895556e-23,3.129300584931160527e-16,7.277583695948440976e-11,1.593297971438615476e-07,1.158606802115939959e-05,3.003540365957765032e-04,5.550780549296008802e-04,1.138630678895606249e-03,2.321116513478091448e-03,3.622865119906803089e-03,5.227729369295143480e-03,7.478397059935804926e-03,9.991783939961109556e-03,1.350002349204794221e-02,1.744346484629244812e-02,2.296979983001592313e-02,2.835649955353930496e-02,3.464261072265210906e-02,4.009393290779796060e-02,4.446587381603978040e-02,4.790760290509075980e-02,5.091525044588794680e-02,5.384872170925429635e-02,5.607504636859018954e-02,5.812829770551716790e-02,5.986258378998093183e-02,6.136229526214152796e-02,6.279764479275361244e-02,6.371367891929248517e-02,6.473462675354912932e-02,6.536011223215075494e-02,6.583872503261031794e-02,6.606866619967782794e-02,6.644556811173112087e-02,6.624376677047340289e-02,6.614958880764645888e-02,6.580813562092828473e-02,6.508323472413310440e-02,6.426911762541899498e-02,6.315759171862021792e-02,6.209810437087513041e-02,6.064555695817033798e-02,5.910657021548185175e-02,5.712152018117784558e-02,5.498037787245201036e-02,5.258002652091906676e-02,4.932742554340681373e-02,4.563331927573641145e-02,4.183997197910022114e-02,3.705285073657830358e-02,3.394175318764921373e-02,2.797639871783579035e-02,2.024086672612241886e-02,1.540861558717505041e-02,1.059369796166999278e-02,8.104729908580994915e-03,5.983402486499487041e-03,3.842349321242939045e-03,2.226770299713432336e-03,9.732005730027479175e-04,3.795184649913556081e-04,9.918623626222200778e-05,1.695862237911355716e-05,1.538364996123620842e-07,6.900256952497439517e-08,2.061507803058821120e-12,2.072388687153489168e-19,5.695626718515341668e-20,2.559623210261117243e-29,0.000000000000000000e+00,0.000000000000000000e+00,0.000000000000000000e+00,0.000000000000000000e+00,0.000000000000000000e+00,0.000000000000000000e+00,0.000000000000000000e+00,0.000000000000000000e+00,0.000000000000000000e+00,0.000000000000000000e+00,0.000000000000000000e+00,0.000000000000000000e+00,0.000000000000000000e+00,0.000000000000000000e+00,nan
nan,0.000000000000000000e+00,0.000000000000000000e+00,0.000000000000000000e+00,0.000000000000000000e+00,0.000000000000000000e+00,0.000000000000000000e+00,0.000000000000000000e+00,0.000000000000000000e+00,0.000000000000000000e+00,0.000000000000000000e+00,0.000000000000000000e+00,0.000000000000000000e+00,0.000000000000000000e+00,0.000000000000000000e+00,0.000000000000000000e+00,1.884438796369553230e-32,9.444418479353525822e-22,1.069554208611871349e-14,3.503938355802504897e-10,4.212485608281941904e-06,1.129666039503878246e-05,7.069028381154242595e-05,3.457672143378971198e-04,1.005550559303801644e-03,1.523359786003001572e-03,2.612398573064227299e-03,4.028823325594213002e-03,5.800441511301191420e-03,7.760396785302433459e-03,1.028473519662497469e-02,1.451119193335235862e-02,1.797713451451138367e-02,2.306471273408787492e-02,2.934309511960567912e-02,3.480447693572471385e-02,3.880806670442105144e-02,4.256480316101282635e-02,4.602606212836295174e-02,4.811017797130899554e-02,5.111297618235793178e-02,5.294455758486454888e-02,5.470435092119425857e-02,5.609582221133015134e-02,5.728899066157423781e-02,5.833006130467958267e-02,5.903410560115378292e-02,5.969599748469212042e-02,6.003923392298399220e-02,6.022824555643645911e-02,6.009568850313522226e-02,5.992551281341335079e-02,5.939720986090654686e-02,5.883263297785915058e-02,5.775234688757783369e-02,5.654700191782193602e-02,5.508890873511199104e-02,5.349545098232240392e-02,5.171050692266996457e-02,4.958435798365287001e-02,4.712932874317404125e-02,4.416386615780130281e-02,4.080267377247688565e-02,3.650747297561051513e-02,3.182514474929018511e-02,2.687134748320183994e-02,2.374284705235196746e-02,1.903982835721586622e-02,1.370395714602163501e-02,9.180820536726979827e-03,6.689347444100721476e-03,4.914581230076697609e-03,3.296653158509527635e-03,1.979170411814524036e-03,9.627623978767105642e-04,3.540691447412729368e-04,5.466990736077074179e-05,3.099875210878035611e-05,3.954806486639887486e-06,9.287692665312650893e-10,3.158093388665483814e-13,4.807108326872324711e-15,1.119453073481676677e-28,0.000000000000000000e+00,0.000000000000000000e+00,0.000000000000000000e+00,0.000000000000000000e+00,0.000000000000000000e+00,0.000000000000000000e+00,0.000000000000000000e+00,0.000000000000000000e+00,0.000000000000000000e+00,0.000000000000000000e+00,0.000000000000000000e+00,0.000000000000000000e+00,0.000000000000000000e+00,0.000000000000000000e+00,0.000000000000000000e+00,0.000000000000000000e+00,nan
nan,0.000000000000000000e+00,0.000000000000000000e+00,0.000000000000000000e+00,0.000000000000000000e+00,0.000000000000000000e+00,0.000000000000000000e+00,0.000000000000000000e+00,0.000000000000000000e+00,0.000000000000000000e+00,0.000000000000000000e+00,0.000000000000000000e+00,0.000000000000000000e+00,0.000000000000000000e+00,0.000000000000000000e+00,0.000000000000000000e+00,0.000000000000000000e+00,8.991250539893774758e-22,3.052734224148151545e-16,3.253893453328599376e-12,1.114412738930137961e-08,8.937340703201260023e-06,9.458139693553077799e-06,4.329113555844432134e-05,2.329408479239999236e-04,4.963200528340408176e-04,1.298109444349394934e-03,2.094176346376594618e-03,3.196036706467848387e-03,4.520465349967773064e-03,6.797747074129624131e-03,9.029933454193832254e-03,1.112127920142504806e-02,1.381385429161928295e-02,1.803801660376909075e-02,2.294414904832126068e-02,2.737475787888998466e-02,3.167332708073751502e-02,3.602185997014787505e-02,3.929174888609356098e-02,4.252674097393303876e-02,4.467702625075370415e-02,4.657502111182071358e-02,4.811592226438548420e-02,4.968108479274117167e-02,5.106855766465492885e-02,5.201418015866807187e-02,5.258873652518786246e-02,5.296621564671478294e-02,5.292864853472872833e-02,5.292873578863012407e-02,5.297031526761516312e-02,5.248157556970096949e-02,5.160299704986001657e-02,5.029362209668965245e-02,4.872952902717266055e-02,4.663460737722865262e-02,4.404864353656644943e-02,4.286960034132955566e-02,3.995730583445845918e-02,3.724843631153366974e-02,3.347827200678198806e-02,2.960499739662559096e-02,2.467179409986598390e-02,1.992302137265017370e-02,1.671455876888879033e-02,1.360029336166833878e-02,1.115469742906162638e-02,8.120309134013379421e-03,5.799205220074668543e-03,3.922065444091798678e-03,2.727056955107121702e-03,1.364390395864264810e-03,8.686525435836598861e-04,1.691198859854820468e-04,1.517093482508851611e-05,3.962818157075031128e-06,3.380147173203662493e-08,1.929999131320246374e-11,4.123126343618230019e-12,1.470222796808148689e-13,1.987326200093683134e-16,1.328741210865516434e-32,0.000000000000000000e+00,0.000000000000000000e+00,0.000000000000000000e+00,0.000000000000000000e+00,0.000000000000000000e+00,0.000000000000000000e+00,0.000000000000000000e+00,0.000000000000000000e+00,0.000000000000000000e+00,0.000000000000000000e+00,0.000000000000000000e+00,0.000000000000000000e+00,0.000000000000000000e+00,0.000000000000000000e+00,0.000000000000000000e+00,0.000000000000000000e+00,nan
nan,0.000000000000000000e+00,0.000000000000000000e+00,0.000000000000000000e+00,0.000000000000000000e+00,0.000000000000000000e+00,0.000000000000000000e+00,0.000000000000000000e+00,0.000000000000000000e+00,0.000000000000000000e+00,0.000000000000000000e+00,0.000000000000000000e+00,0.000000000000000000e+00,0.000000000000000000e+00,0.000000000000000000e+00,0.000000000000000000e+00,0.000000000000000000e+00,6.641748346549328885e-38,6.718948707389781995e-26,2.018178885187206177e-17,1.343434044653450921e-16,1.624758877018757585e-08,1.635831699336588950e-07,3.220734469521671419e-06,3.510613783139091221e-05,8.327952040455596891e-05,4.735984429315387651e-04,7.871493422562335623e-04,1.399206913986286238e-03,2.277441738617514214e-03,3.540909381674653758e-03,4.815685736026292102e-03,6.708367101178461245e-03,8.374329480790351776e-03,1.089519804681553065e-02,1.380308609541970773e-02,1.621135935159387365e-02,1.933972011870706970e-02,2.296271074260874609e-02,2.745465578912196364e-02,3.050855005238979969e-02,3.411642341808584361e-02,3.597119420538628931e-02,3.805738306490454026e-02,3.965316536329900610e-02,4.122945195498263493e-02,4.307597687828793043e-02,4.376935168077848715e-02,4.437180430921407182e-02,4.420862371768425475e-02,4.424327347011074163e-02,4.402165298918587349e-02,4.352529693296970648e-02,4.246558894074724949e-02,4.027622282246387519e-02,3.878355812286012061e-02,3.618352180925554079e-02,3.358551715806828986e-02,3.151222015401598103e-02,2.850032721362108501e-02,2.547726306703571378e-02,2.288128667234818822e-02,1.821771434281267005e-02,1.395269041679831658e-02,1.186361627464998202e-02,1.022037154023303779e-02,8.524564100056801486e-03,6.341804662268401074e-03,4.518504074773554979e-03,3.050927368454489294e-03,2.090477422931761968e-03,1.066907390221756785e-03,3.961405485611781564e-04,9.011123247510771867e-05,4.677426022738256689e-05,3.303134476003366211e-07,1.982493136981450703e-08,1.132266095779627070e-10,1.420173216004630881e-11,2.113984026023545462e-17,1.496757348887854835e-25,4.872650135705121055e-23,0.000000000000000000e+00,0.000000000000000000e+00,0.000000000000000000e+00,0.000000000000000000e+00,0.000000000000000000e+00,0.000000000000000000e+00,0.000000000000000000e+00,0.000000000000000000e+00,0.000000000000000000e+00,0.000000000000000000e+00,0.000000000000000000e+00,0.000000000000000000e+00,0.000000000000000000e+00,0.000000000000000000e+00,0.000000000000000000e+00,0.000000000000000000e+00,0.000000000000000000e+00,nan
nan,0.000000000000000000e+00,0.000000000000000000e+00,0.000000000000000000e+00,0.000000000000000000e+00,0.000000000000000000e+00,0.000000000000000000e+00,0.000000000000000000e+00,0.000000000000000000e+00,0.000000000000000000e+00,0.000000000000000000e+00,0.000000000000000000e+00,0.000000000000000000e+00,0.000000000000000000e+00,0.000000000000000000e+00,0.000000000000000000e+00,0.000000000000000000e+00,0.000000000000000000e+00,7.119154101589835741e-37,4.329669606132745120e-36,4.101797842837247103e-24,5.005166709613030042e-09,6.828137069347549850e-10,2.998021166604257895e-08,1.707136089722004695e-05,2.696300714875790995e-05,1.162270857923007237e-04,8.936976331554302038e-05,3.380909533323540146e-04,9.280408848617967754e-04,1.418387239382287116e-03,2.356686503426722815e-03,3.807298940775447754e-03,5.367286705871360253e-03,6.245053553628965998e-03,8.085537425851628546e-03,9.082584738085734341e-03,1.038261311662791800e-02,1.247978600021852277e-02,1.580663584122635537e-02,1.918866994610691004e-02,2.154106169158066450e-02,2.370685241523643599e-02,2.642327755762031299e-02,2.751756530172195375e-02,2.993538922440968156e-02,3.138923840353527450e-02,3.303670895308089689e-02,3.351391817104823478e-02,3.372255195236470438e-02,3.372516591133194880e-02,3.238213673808305881e-02,3.167413479766728601e-02,3.021738171598623360e-02,2.864031009326899885e-02,2.623818649203641870e-02,2.384413126588345172e-02,2.118580818328839183e-02,1.872816508380439893e-02,1.648577810362981955e-02,1.479643927813664890e-02,1.377958307803986253e-02,1.156228663417597884e-02,8.540321683335086456e-03,7.295525099821922183e-03,6.339917249350454816e-03,5.106702007512611483e-03,3.747679353071378845e-03,2.240875609888631596e-03,1.484517790872900023e-03,6.888250968577855782e-04,5.181377910500796101e-04,6.178178796723574149e-05,2.464359255582867863e-05,1.398781604331466311e-07,1.348251387439816903e-07,1.845756151460455931e-10,9.308739187977214663e-11,1.305066899340941512e-16,1.907107557480254270e-26,0.000000000000000000e+00,0.000000000000000000e+00,0.000000000000000000e+00,0.000000000000000000e+00,0.000000000000000000e+00,0.000000000000000000e+00,0.000000000000000000e+00,0.000000000000000000e+00,0.000000000000000000e+00,0.000000000000000000e+00,0.000000000000000000e+00,0.000000000000000000e+00,0.000000000000000000e+00,0.000000000000000000e+00,0.000000000000000000e+00,0.000000000000000000e+00,0.000000000000000000e+00,0.000000000000000000e+00,0.000000000000000000e+00,nan
