nan,0.000000000000000000e+00,0.000000000000000000e+00,0.000000000000000000e+00,0.000000000000000000e+00,0.000000000000000000e+00,0.000000000000000000e+00,0.000000000000000000e+00,0.000000000000000000e+00,0.000000000000000000e+00,0.000000000000000000e+00,0.000000000000000000e+00,0.000000000000000000e+00,0.000000000000000000e+00,0.000000000000000000e+00,0.000000000000000000e+00,0.000000000000000000e+00,0.000000000000000000e+00,0.000000000000000000e+00,0.000000000000000000e+00,0.000000000000000000e+00,0.000000000000000000e+00,0.000000000000000000e+00,0.000000000000000000e+00,0.000000000000000000e+00,0.000000000000000000e+00,0.000000000000000000e+00,0.000000000000000000e+00,0.000000000000000000e+00,0.000000000000000000e+00,0.000000000000000000e+00,0.000000000000000000e+00,0.000000000000000000e+00,0.000000000000000000e+00,0.000000000000000000e+00,0.000000000000000000e+00,0.000000000000000000e+00,0.000000000000000000e+00,0.000000000000000000e+00,0.000000000000000000e+00,0.000000000000000000e+00,0.000000000000000000e+00,0.000000000000000000e+00,0.000000000000000000e+00,0.000000000000000000e+00,1.367159365719768649e-01,2.432258716946811561e-01,2.484134641469334104e-01,2.497225341082834893e-01,2.518826918293115003e-01,2.535793998031334873e-01,2.524443483215130790e-01,2.503567871489529306e-01,2.434872028487270745e-01,1.294096942563580932e-01,0.000000000000000000e+00,0.000000000000000000e+00,0.000000000000000000e+00,0.000000000000000000e+00,0.000000000000000000e+00,0.000000000000000000e+00,0.000000000000000000e+00,0.000000000000000000e+00,0.000000000000000000e+00,0.000000000000000000e+00,0.000000000000000000e+00,0.000000000000000000e+00,0.000000000000000000e+00,0.000000000000000000e+00,0.000000000000000000e+00,0.000000000000000000e+00,0.000000000000000000e+00,0.000000000000000000e+00,0.000000000000000000e+00,0.000000000000000000e+00,0.000000000000000000e+00,0.000000000000000000e+00,0.000000000000000000e+00,0.000000000000000000e+00,0.000000000000000000e+00,0.000000000000000000e+00,0.000000000000000000e+00,0.000000000000000000e+00,0.000000000000000000e+00,0.000000000000000000e+00,0.000000000000000000e+00,0.000000000000000000e+00,0.000000000000000000e+00,0.000000000000000000e+00,0.000000000000000000e+00,0.000000000000000000e+00,0.000000000000000000e+00,0.000000000000000000e+00,0.000000000000000000e+00,0.000000000000000000e+00,0.000000000000000000e+00,0.000000000000000000e+00,0.000000000000000000e+00,0.000000000000000000e+00,nan
nan,0.000000000000000000e+00,0.000000000000000000e+00,0.000000000000000000e+00,0.000000000000000000e+00,0.000000000000000000e+00,0.000000000000000000e+00,0.000000000000000000e+00,0.000000000000000000e+00,0.000000000000000000e+00,0.000000000000000000e+00,0.000000000000000000e+00,0.000000000000000000e+00,0.000000000000000000e+00,0.000000000000000000e+00,0.000000000000000000e+00,0.000000000000000000e+00,2.453340805654036227e-02,2.107116678946531832e-02,0.000000000000000000e+00,0.000000000000000000e+00,0.000000000000000000e+00,0.000000000000000000e+00,0.000000000000000000e+00,0.000000000000000000e+00,0.000000000000000000e+00,0.000000000000000000e+00,0.000000000000000000e+00,0.000000000000000000e+00,0.000000000000000000e+00,0.000000000000000000e+00,0.000000000000000000e+00,2.221851706493711137e-02,0.000000000000000000e+00,0.000000000000000000e+00,0.000000000000000000e+00,0.000000000000000000e+00,0.000000000000000000e+00,0.000000000000000000e+00,0.000000000000000000e+00,0.000000000000000000e+00,0.000000000000000000e+00,0.000000000000000000e+00,0.000000000000000000e+00,0.000000000000000000e+00,1.269230503946860988e-01,2.465585655177423841e-01,2.517200353896700826e-01,2.535205061385908398e-01,2.549077301557191588e-01,2.544737074646011843e-01,2.510128952528456470e-01,2.478802790722867688e-01,2.279989944076173947e-01,2.168011487781260627e-01,0.000000000000000000e+00,3.947290050969762265e-02,3.884310214358045743e-02,0.000000000000000000e+00,0.000000000000000000e+00,0.000000000000000000e+00,0.000000000000000000e+00,0.000000000000000000e+00,0.000000000000000000e+00,0.000000000000000000e+00,0.000000000000000000e+00,0.000000000000000000e+00,0.000000000000000000e+00,0.000000000000000000e+00,0.000000000000000000e+00,0.000000000000000000e+00,0.000000000000000000e+00,2.265727978120283398e-02,0.000000000000000000e+00,0.000000000000000000e+00,2.149898341812122790e-02,0.000000000000000000e+00,0.000000000000000000e+00,0.000000000000000000e+00,0.000000000000000000e+00,0.000000000000000000e+00,0.000000000000000000e+00,3.227804838566274495e-03,0.000000000000000000e+00,0.000000000000000000e+00,0.000000000000000000e+00,0.000000000000000000e+00,0.000000000000000000e+00,2.763684184432307293e-03,0.000000000000000000e+00,1.100613349114870979e-02,0.000000000000000000e+00,0.000000000000000000e+00,7.352073917147428951e-03,0.000000000000000000e+00,0.000000000000000000e+00,0.000000000000000000e+00,0.000000000000000000e+00,0.000000000000000000e+00,nan
nan,1.024709378914531732e-02,1.745891281836787351e-02,5.887419237185533873e-03,5.880485582811958815e-03,1.174481292912273739e-02,1.789677721953277303e-02,1.652623013023612683e-02,3.712080833045559858e-02,5.178646188968295816e-02,1.371657665849711563e-02,5.423567021299479513e-02,9.208717689873123849e-03,7.581658313272579552e-02,5.244650502433145789e-02,3.733525868774317108e-02,5.954355775853680671e-02,7.568436642904979861e-02,9.335313533782335638e-02,6.232990478780223165e-02,4.398573646863285919e-02,5.982158696271826920e-02,1.086623158377916093e-02,6.204448531036273196e-02,5.396995933756448816e-02,6.117642651138836124e-02,5.039791206869581597e-02,1.007649727649029131e-01,1.085215346668209346e-01,7.192028198639086045e-02,6.902542484712320681e-02,1.156533004197963510e-01,1.081820132382142058e-01,1.808027193948176514e-02,9.756999091183617134e-02,4.962488714972928400e-02,3.976240507365425003e-02,6.724623482998110142e-03,4.498054075089005788e-02,2.553065032625663477e-02,7.268230266838522635e-02,8.004315707134194990e-02,3.287282768628038698e-02,1.080364899045445082e-01,1.341696427932160263e-01,2.108631638680424081e-01,2.401109551013714261e-01,2.506635165210170380e-01,2.519108309832776560e-01,2.565730746274271779e-01,2.548561787955512248e-01,2.507062635068418865e-01,2.438250105122568012e-01,2.332102639251840137e-01,2.257496602177833656e-01,1.344584551147310070e-01,1.809576735863609454e-01,4.106817377030322347e-02,9.177621122576956614e-02,1.157979072560466616e-01,1.469913998493375118e-01,1.346004560775982128e-01,7.693558778299372514e-02,2.258900728357818993e-02,2.178697045972110419e-02,3.417839481583905686e-02,9.611824957086381738e-02,7.606769659389765736e-02,2.111168549758339619e-02,6.863004237873268631e-02,8.501620676634849549e-02,4.983462403941673474e-02,8.802959873836520288e-02,5.096361896970937055e-02,8.682743013228254314e-02,5.319120164016186841e-02,3.673781690342250300e-02,4.023874664292408088e-02,7.103051989258578336e-02,8.588029420661408980e-03,7.555656789419633312e-02,2.845850545643082222e-02,5.670327960483223517e-02,2.179284852582205265e-02,5.525679120274126083e-02,5.718824095425781989e-02,4.437513379236676658e-02,6.487414501559546354e-02,5.104078304322715726e-02,6.022901477488742938e-02,5.538714005834337317e-02,4.348918375919074569e-02,2.280055923013484236e-03,4.235347924082604604e-02,1.897512804997556271e-02,3.186897527520499845e-02,3.268021410886579048e-02,1.078930029635357876e-02,2.642315653064473274e-03,nan
nan,1.742751445769168128e-02,2.745700152415983530e-02,3.125931319813795434e-02,4.999636929888477688e-02,5.663983585082135730e-02,6.040731949866546407e-02,6.456845240583031220e-02,6.816758582817956935e-02,7.137598462312294556e-02,6.447252986011645093e-02,7.710152582702951840e-02,7.981523701800151416e-02,8.764432576231226402e-02,9.010520288094181485e-02,9.242017746224667762e-02,9.488870465120782804e-02,9.703735584095010691e-02,9.881535842322922147e-02,1.005721670236869592e-01,1.026980325174157160e-01,1.066681884954680248e-01,1.101357105673198694e-01,1.142748741654058819e-01,1.175893982138167260e-01,1.201973027771119917e-01,1.224984934672446180e-01,1.253658810411936164e-01,1.276699765245488671e-01,1.301337389061901217e-01,1.330436425816775847e-01,1.358682200115989835e-01,1.380178364063410490e-01,1.434156399343394783e-01,1.468840704554578713e-01,1.501158252121548853e-01,1.254198908556578562e-01,1.598451259602002295e-01,1.505195083428780556e-01,1.695525821841151470e-01,1.743444915567081421e-01,1.703345869238977184e-01,1.541492543824053152e-01,1.985957910598941667e-01,2.079223488702549583e-01,2.192172302274248141e-01,2.320794057304763902e-01,2.386291314107583106e-01,2.425492726589285331e-01,2.442791829572547868e-01,2.439697109242662254e-01,2.402349590946217806e-01,2.350992267066304708e-01,2.284743236361709284e-01,2.208429443434123118e-01,2.114910496766448933e-01,1.988665441734481787e-01,1.100970226659164497e-01,1.742437408741628335e-01,1.710873069183289630e-01,1.665138596526365977e-01,1.627035292936614419e-01,1.585824720788235331e-01,1.525837168622029005e-01,1.496240277382002160e-01,1.460921366936049903e-01,1.417075863693565696e-01,1.382369400571856755e-01,1.356724345735577097e-01,1.286188259597104699e-01,1.293689820208925312e-01,1.273132157814752807e-01,1.102324478810177144e-01,1.200516823434652908e-01,1.175810045584432945e-01,1.122681547889123055e-01,1.109158186635837984e-01,1.087839054254471360e-01,1.072642378852598916e-01,9.430988322102593080e-02,1.000162574957030037e-01,9.716085175494024173e-02,8.409587517842326276e-02,9.094954332411557540e-02,8.794277431794721156e-02,8.501358687035330541e-02,8.185604551432593134e-02,7.918708048511829967e-02,7.624359981589218238e-02,7.372027125183996943e-02,7.114823538380697643e-02,6.882356128254261962e-02,5.963564941029915467e-02,5.674805373148558707e-02,5.120253353210857394e-02,4.652957085226321760e-02,4.207973851120165587e-02,3.250591301719372300e-02,1.607612150839399928e-02,nan
nan,1.758982262743719396e-02,3.060923246958972138e-02,4.091760144962278828e-02,5.057247283919441561e-02,5.614713223923373242e-02,6.029029334199435125e-02,6.456917388567820493e-02,6.825013123288273253e-02,7.125835672153538192e-02,7.437892357004781407e-02,7.791530876715026255e-02,8.198478885330834354e-02,8.642507628325717117e-02,8.952730139348069605e-02,9.202818758072144056e-02,9.439693886401551159e-02,9.667883794517842522e-02,9.869549284085378515e-02,1.009276092383078194e-01,1.034693729188391476e-01,1.064779424101988392e-01,1.102752810698838237e-01,1.134859381612475238e-01,1.166689172826826382e-01,1.193613143725731074e-01,1.220449856867121541e-01,1.248774879575627050e-01,1.274176013409068220e-01,1.301796659879117524e-01,1.329395637622877158e-01,1.357040124843298390e-01,1.388261252603245621e-01,1.424993586010002700e-01,1.464524408033941461e-01,1.499498995631083353e-01,1.543007842046840716e-01,1.589920503593982293e-01,1.637366594533559150e-01,1.684072985429555525e-01,1.736485074590919664e-01,1.800947872759068313e-01,1.874798785592308725e-01,1.953633707794280305e-01,2.030479825634305957e-01,2.120601163690802871e-01,2.191937620930587138e-01,2.253992428825230820e-01,2.295091322404959611e-01,2.312975070985028025e-01,2.312097319494534897e-01,2.284535449177797217e-01,2.245122381962385560e-01,2.187823228416093391e-01,2.124652866809778051e-01,2.042370211560798343e-01,1.935611611186364711e-01,1.844732500709939937e-01,1.749892975903088455e-01,1.700873775997115145e-01,1.658734196343562006e-01,1.622411762968706539e-01,1.575336459300060721e-01,1.528561611795141995e-01,1.490089187616431832e-01,1.453864635294636887e-01,1.417204737803305914e-01,1.383349979447164868e-01,1.350641593259226392e-01,1.320169526930966564e-01,1.292857045054796594e-01,1.260376876452781736e-01,1.228618933429551502e-01,1.198796426458187819e-01,1.172205503319525000e-01,1.140739646559486009e-01,1.112712178636838245e-01,1.088098612887641037e-01,1.064839903919092279e-01,1.038640168615620196e-01,1.004150173185774653e-01,9.716452023007224326e-02,9.414570606373784400e-02,9.109491516813561507e-02,8.796164969621721175e-02,8.536407731653815334e-02,8.205095642606109740e-02,7.887352818624007722e-02,7.624644299711201556e-02,7.361385153102562029e-02,7.097382863961487764e-02,6.779301422929520649e-02,6.323546913165074834e-02,5.789504610067044976e-02,5.231295939571796449e-02,4.709902728252866183e-02,4.136227549922747576e-02,3.278749079574914960e-02,1.805905659225681345e-02,nan
nan,1.806633312379573100e-02,3.164275261147407592e-02,4.250900528155768243e-02,5.070751688184708950e-02,5.584957555681017982e-02,6.034690449260726730e-02,6.437851088173485170e-02,6.805089163169866784e-02,7.140155036377193731e-02,7.473632775064453782e-02,7.820378161773747228e-02,8.225669270381660847e-02,8.575588734102820854e-02,8.879069307431146363e-02,9.152952801816015282e-02,9.401467365526455788e-02,9.642754244812996867e-02,9.872318475718555586e-02,1.010902910158121282e-01,1.038084607772859769e-01,1.068069159823692854e-01,1.100268447927986587e-01,1.130653171447326411e-01,1.161094815369319577e-01,1.188733327071645474e-01,1.216088010267179775e-01,1.243601801325948941e-01,1.270996860926071337e-01,1.298355022332248754e-01,1.326401983270417417e-01,1.354832352866736089e-01,1.385835074093476615e-01,1.424237167257970393e-01,1.457559698275285032e-01,1.495035100268063410e-01,1.536054100942572664e-01,1.579593069863837740e-01,1.625627263812197132e-01,1.671001951409376018e-01,1.721321940742146228e-01,1.778208104182022464e-01,1.841948339232729326e-01,1.911064131751111228e-01,1.975452413179579203e-01,2.043281508101247312e-01,2.109518267952581461e-01,2.153297469100393657e-01,2.183808300820259951e-01,2.198958956105904750e-01,2.195440417042224535e-01,2.177964338688506141e-01,2.145678224738979678e-01,2.102438043130376577e-01,2.043843677021128236e-01,1.974237533304071257e-01,1.898013155408773411e-01,1.818879863436923261e-01,1.745508604926822860e-01,1.694352139996445072e-01,1.646937472671111680e-01,1.606306098019835149e-01,1.563871412413889717e-01,1.523282044637770949e-01,1.484520115996115497e-01,1.449052901047395148e-01,1.413754605624207294e-01,1.378998259647133962e-01,1.347217879248583938e-01,1.317189002765287165e-01,1.288879292946414901e-01,1.256730776760425494e-01,1.227289698938913154e-01,1.197198955706709200e-01,1.168196227029406620e-01,1.138792263224556039e-01,1.110772284990983183e-01,1.085919777926891844e-01,1.060245756384895766e-01,1.033952940761196371e-01,1.003374619211357260e-01,9.718781451346841793e-02,9.421687160232530833e-02,9.119837322574173011e-02,8.809274305716571773e-02,8.520518009135920334e-02,8.219019702783145198e-02,7.910752704764059673e-02,7.620338815668045718e-02,7.334393011120707295e-02,7.035780613420158924e-02,6.692207321455012625e-02,6.285518658623794053e-02,5.796513391521129765e-02,5.310018352478187292e-02,4.763793802112898518e-02,4.099450998643884569e-02,3.169944945599990210e-02,1.836363039182260445e-02,nan
nan,1.904260275577699876e-02,3.260641169638516662e-02,4.315819812019772161e-02,5.026985129362677301e-02,5.571851548492567918e-02,6.018751312370564793e-02,6.415210802029208681e-02,6.787026522981388921e-02,7.138698327452600023e-02,7.477444319047105159e-02,7.828556518025583943e-02,8.184483243559463606e-02,8.518798684260664444e-02,8.825208769511784512e-02,9.101351080760231027e-02,9.362728394732910964e-02,9.611177309013393955e-02,9.855607339284336299e-02,1.010621581205767283e-01,1.037634944176882013e-01,1.066493984796628297e-01,1.096756872761256718e-01,1.126627219047383333e-01,1.155272842138547473e-01,1.183360304163244420e-01,1.210901171984837543e-01,1.238348467766352823e-01,1.265615198158908661e-01,1.293473329038997144e-01,1.321824387506996268e-01,1.350753562024278320e-01,1.382501819831266354e-01,1.416077097850909072e-01,1.451286926631253082e-01,1.487286850518466930e-01,1.526201709924638605e-01,1.566864320635181218e-01,1.610384842407021622e-01,1.655488613416034593e-01,1.700781490945820484e-01,1.752626055971141794e-01,1.807584890614482853e-01,1.863048492292428693e-01,1.921145068734332884e-01,1.974333398540350781e-01,2.024615694254334186e-01,2.060534922032404848e-01,2.087007665098454534e-01,2.098855059198306283e-01,2.098086676735477774e-01,2.081730921064455231e-01,2.059402254764839124e-01,2.018009381558405757e-01,1.974628758765557823e-01,1.913741730148855458e-01,1.855748756293230106e-01,1.787262488044004671e-01,1.730047375895907846e-01,1.679145884057993698e-01,1.633043220455368538e-01,1.592012582333500181e-01,1.553148823666294087e-01,1.513684238274959348e-01,1.475921273351524232e-01,1.440856087587922552e-01,1.406808792686836951e-01,1.373369257586048719e-01,1.342331331456335097e-01,1.312003994486445890e-01,1.282436968044737002e-01,1.252394757086401911e-01,1.223440653132566863e-01,1.194424746945449423e-01,1.165482945300602702e-01,1.136609605518441590e-01,1.109261315309441193e-01,1.082555973253553766e-01,1.056307789112814755e-01,1.029027544687878964e-01,9.996343653388611861e-02,9.701126551337127535e-02,9.406570295921964919e-02,9.102491256373954065e-02,8.807099663781298160e-02,8.507988695216874009e-02,8.211799672698835706e-02,7.909782560988119771e-02,7.608572993649884153e-02,7.310486656261908078e-02,6.995750110814182021e-02,6.643805321652081208e-02,6.248594376469222833e-02,5.801408819683412377e-02,5.305858350811905322e-02,4.755946254313396515e-02,4.065471268489040391e-02,3.175213304984737112e-02,1.893177066520186982e-02,nan
nan,1.954312652077833459e-02,3.250781546360176355e-02,4.293861291881714837e-02,5.011520908625279741e-02,5.547881877759554270e-02,5.983040931817727726e-02,6.391302232021200957e-02,6.762205859568601318e-02,7.119609765118140032e-02,7.465802400022662766e-02,7.809125225102166168e-02,8.149146251766770099e-02,8.468004102579586301e-02,8.772769248937545283e-02,9.052498312998011332e-02,9.319167892839572143e-02,9.575072706919718346e-02,9.829363296009610562e-02,1.008819036185894524e-01,1.035868162831976858e-01,1.064114757775477538e-01,1.092352718492389241e-01,1.121255180113695377e-01,1.149568690514904401e-01,1.177142319541713278e-01,1.204836954414996164e-01,1.232152176960761569e-01,1.259425397004722558e-01,1.286918969387799982e-01,1.314970378903478898e-01,1.344983641739608271e-01,1.375314569519016927e-01,1.407559218084233621e-01,1.441638780539284126e-01,1.476231317009980837e-01,1.513278245912231534e-01,1.551277401456343796e-01,1.590160683396948937e-01,1.634306556709904379e-01,1.678235946694535130e-01,1.722474214601518727e-01,1.771046146843943125e-01,1.820247747965300089e-01,1.867182488942462915e-01,1.910923192437943841e-01,1.949325147604212272e-01,1.982482662503851634e-01,2.001805658112471298e-01,2.010797276342545237e-01,2.013446453651325241e-01,1.998338896259972963e-01,1.976701390707337747e-01,1.943229913865262559e-01,1.903938196565466423e-01,1.858088861843477657e-01,1.806837731207089071e-01,1.752727076218901781e-01,1.704061928048192509e-01,1.657260844590335569e-01,1.615364787301038496e-01,1.576375619010068618e-01,1.537609462308186237e-01,1.501172535345452475e-01,1.465250995323359728e-01,1.431059069709129383e-01,1.397944277433935123e-01,1.365711072928480485e-01,1.334962614631630129e-01,1.304917369787562675e-01,1.275440722396594395e-01,1.246569829038893795e-01,1.217521391911692147e-01,1.189020800428968044e-01,1.160552892413808240e-01,1.132694421701653520e-01,1.105542208349487715e-01,1.078725536243811817e-01,1.051848970938949468e-01,1.024463517547616886e-01,9.960289260647828269e-02,9.671953254601978189e-02,9.378136758775748594e-02,9.084430403978198398e-02,8.787503662140884464e-02,8.493224193442949765e-02,8.193500403396133946e-02,7.893203672152331041e-02,7.586890161536137545e-02,7.277242353121894658e-02,6.949953695529718922e-02,6.601289880725036419e-02,6.208553016043261152e-02,5.773987325235041546e-02,5.284104855691001967e-02,4.710766843247197327e-02,4.045547679990819934e-02,3.111287285601966116e-02,1.834890161749255441e-02,nan
nan,1.946374577282695278e-02,3.159869034857203801e-02,4.264830464901066959e-02,4.970886167025508756e-02,5.502947536384854288e-02,5.956759178305739283e-02,6.350976455399701126e-02,6.733954378603541902e-02,7.091283293811738442e-02,7.432658599390729037e-02,7.769978808776158152e-02,8.103197105297156588e-02,8.415716388699509554e-02,8.717560864464801718e-02,8.999614751129263179e-02,9.268027259480796087e-02,9.530902411516255224e-02,9.788878862822766869e-02,1.005360961899264133e-01,1.032259822082809420e-01,1.059646039431020870e-01,1.087246242225419768e-01,1.115591306981326691e-01,1.142699464771376044e-01,1.170493098545456467e-01,1.197750226276398933e-01,1.224783145089174685e-01,1.251637135447783711e-01,1.279177827354653907e-01,1.306950492556904209e-01,1.336225089110493480e-01,1.366130640609877767e-01,1.397789254373595913e-01,1.429571252104848700e-01,1.463377481273537839e-01,1.498086354731723024e-01,1.534593472276210568e-01,1.571640059522340649e-01,1.610315862251705532e-01,1.650650092408031677e-01,1.690766132873092187e-01,1.732751808589529097e-01,1.774023207466522978e-01,1.812706274252704197e-01,1.849102331180074998e-01,1.882481863598111094e-01,1.907609985258152674e-01,1.926717247483253903e-01,1.934979871276607810e-01,1.934031428484866977e-01,1.922241389369292730e-01,1.903430312700022109e-01,1.879297662365296551e-01,1.843291866206237528e-01,1.806495827308527424e-01,1.763740942889714947e-01,1.719856987445597674e-01,1.677064058241934386e-01,1.634096039236696274e-01,1.594555162905391954e-01,1.558139321086446094e-01,1.521799687914294208e-01,1.486622147797430904e-01,1.452119847925924800e-01,1.419379838977671837e-01,1.387283808902335380e-01,1.356574543092920748e-01,1.326070305683010042e-01,1.296910504124157426e-01,1.267876825408356667e-01,1.239531820486711594e-01,1.211252322785747321e-01,1.182828317660636480e-01,1.155296494590631051e-01,1.127667019736666443e-01,1.100584620000015640e-01,1.073871539900860400e-01,1.046828026621918484e-01,1.019453108121988194e-01,9.915470489208487448e-02,9.631584370630566494e-02,9.346275333609933844e-02,9.051124813740960007e-02,8.760002090680049647e-02,8.464828238956065287e-02,8.166824898537644595e-02,7.862060892736219553e-02,7.554719533431186740e-02,7.236672505830600566e-02,6.906580311386982529e-02,6.552156225479931206e-02,6.164247675347428457e-02,5.731346584869935479e-02,5.245026030645726089e-02,4.694532740611315896e-02,3.991700565062994421e-02,2.970353373224654189e-02,1.768155031557824136e-02,nan
nan,1.787459620439742561e-02,3.083640472428748891e-02,4.165043149835362390e-02,4.887340803682212187e-02,5.428452778276938312e-02,5.907532336774996840e-02,6.311253287958051850e-02,6.685655588987396425e-02,7.046435938123264686e-02,7.393736224311851790e-02,7.726004992065238497e-02,8.048449932592248446e-02,8.360694405713484101e-02,8.658263151109298061e-02,8.941395071574306797e-02,9.214224731778071498e-02,9.480303493746920773e-02,9.743779964481849576e-02,1.000331779206202754e-01,1.027324385010639218e-01,1.054380534388713736e-01,1.081733349863502891e-01,1.108628109157431263e-01,1.135777224306830507e-01,1.162826694463124783e-01,1.189680696921423392e-01,1.216395031424384737e-01,1.243363985427184265e-01,1.270396126370011425e-01,1.298152056204016913e-01,1.326286629163074549e-01,1.355275866686038444e-01,1.385476837231862657e-01,1.416377923600180833e-01,1.448351837237640272e-01,1.481311361485921352e-01,1.515545657005176183e-01,1.549855048027222459e-01,1.586366232867400528e-01,1.621660614255315269e-01,1.658394541934924971e-01,1.695788249389564573e-01,1.729919992375010263e-01,1.764889169056578222e-01,1.796765720970829594e-01,1.822068928727454962e-01,1.844228803242816406e-01,1.855385169990864669e-01,1.861765789464383536e-01,1.863789539500372572e-01,1.857293816830817013e-01,1.839056764956813472e-01,1.814409766389801226e-01,1.788212086312787608e-01,1.757528156929504815e-01,1.719295650490368366e-01,1.683803282760334419e-01,1.645527693974538908e-01,1.607423840463403919e-01,1.571357131690714060e-01,1.537337757702083030e-01,1.503623133923502331e-01,1.469675027918262711e-01,1.437719539916890998e-01,1.405931003992518802e-01,1.375372986275475440e-01,1.345420061750823570e-01,1.316345417594150524e-01,1.287194963379722501e-01,1.259196061988041293e-01,1.231210307909105517e-01,1.203492402391484473e-01,1.175866312777386624e-01,1.148348902551956513e-01,1.121445053694290345e-01,1.094535689141117318e-01,1.067834992787362464e-01,1.041141462707463883e-01,1.013796914439402397e-01,9.860880298911622877e-02,9.583088899945994832e-02,9.300159711618999347e-02,9.011103059827330064e-02,8.721211531425057673e-02,8.425609084636279111e-02,8.128474506999291971e-02,7.824349411022352152e-02,7.512283986309924166e-02,7.190082807049899549e-02,6.855262433361311580e-02,6.499065315601681991e-02,6.094789712947934479e-02,5.681158735193016923e-02,5.204021701025932090e-02,4.633083764691305062e-02,3.926232426147362869e-02,2.830261415570595879e-02,1.625594614089248893e-02,nan
nan,1.716830594340525151e-02,3.013130278830714395e-02,4.101754925849464967e-02,4.846594667630354375e-02,5.404824400487114044e-02,5.859225417659065516e-02,6.257120460086343372e-02,6.630891212151414360e-02,6.989033429954377707e-02,7.338947230051567905e-02,7.667824215039634184e-02,7.989737341898395240e-02,8.298098400035142097e-02,8.592603532597967164e-02,8.877690117450801055e-02,9.150730794840969407e-02,9.420215731706824136e-02,9.683919957776912502e-02,9.947673396267739387e-02,1.021237768585293998e-01,1.047858610913294936e-01,1.074626632989065245e-01,1.101306487698773540e-01,1.127897247888751675e-01,1.154399925105676350e-01,1.180813351395226113e-01,1.207057593718277311e-01,1.233498665990925419e-01,1.260330754177579060e-01,1.287001731807421723e-01,1.314785105882765037e-01,1.343118084277566127e-01,1.372069512259073143e-01,1.401975148269636595e-01,1.432136549992686358e-01,1.463337888689334176e-01,1.494750630168022454e-01,1.527382645241441017e-01,1.559454956555615390e-01,1.593316021355829504e-01,1.624888655655266634e-01,1.657879017077471262e-01,1.688523659873128746e-01,1.718437309498038745e-01,1.743903505565372325e-01,1.764533334115179486e-01,1.784317199512364671e-01,1.795217229569632811e-01,1.801094833512477122e-01,1.802262478236510979e-01,1.794197702960537988e-01,1.779473796222608151e-01,1.762099109318802093e-01,1.739077166146053288e-01,1.711061562373732692e-01,1.679250648776631216e-01,1.647859670281299760e-01,1.612770778153715390e-01,1.580432403632622829e-01,1.547634540060709996e-01,1.515838752887063157e-01,1.483653698824446698e-01,1.452615915456192119e-01,1.421489499397294021e-01,1.391694383596644990e-01,1.362382844025630257e-01,1.333200458113382447e-01,1.304796074040179277e-01,1.277053393920282720e-01,1.249231139500988352e-01,1.221835493541543333e-01,1.194727153683594612e-01,1.167591962234236086e-01,1.140778775576267584e-01,1.113889542164774454e-01,1.087762231582316275e-01,1.061158509730525112e-01,1.034326122796603020e-01,1.007524848233265907e-01,9.802347681536061064e-02,9.525950595293138090e-02,9.244995173794318122e-02,8.960879465349708139e-02,8.670534479893840518e-02,8.377937602042748177e-02,8.080965459239583537e-02,7.774769455375925287e-02,7.462917865366418269e-02,7.136164947348337673e-02,6.794503252855428610e-02,6.432946024198953061e-02,6.046344404904721581e-02,5.616339777614855200e-02,5.141447872103589722e-02,4.567502428626919742e-02,3.826302309591021744e-02,2.756538013806162507e-02,1.592410011177431209e-02,nan
nan,1.752308406457482939e-02,3.062573235810633204e-02,4.051205757246192918e-02,4.758468231504953128e-02,5.344660579980932413e-02,5.807655389636073862e-02,6.195720953187475871e-02,6.570784943001645173e-02,6.924162206099021555e-02,7.272146951469726783e-02,7.606410201656294001e-02,7.921319363556061921e-02,8.227457309963666365e-02,8.522093662399554681e-02,8.804785926348832059e-02,9.081494219472235896e-02,9.351508884146739198e-02,9.616100007536303174e-02,9.878662434291232697e-02,1.014013111199200123e-01,1.040549543019819723e-01,1.066690817629487309e-01,1.092907629550822629e-01,1.118988617291603455e-01,1.145009373621149601e-01,1.170914075729134751e-01,1.196929795637728111e-01,1.222651476997998199e-01,1.249016614990356572e-01,1.275534205121286180e-01,1.302278416919552262e-01,1.329559697398531859e-01,1.357555870143415389e-01,1.385578805567406757e-01,1.414227371983731996e-01,1.443967417599538727e-01,1.473209587454216152e-01,1.502473728014506738e-01,1.532703552377861211e-01,1.562920817979515098e-01,1.592494318593248304e-01,1.621798034319795190e-01,1.649749220856305820e-01,1.673196426687128535e-01,1.695823227683401213e-01,1.713987416790334894e-01,1.729027593125073148e-01,1.739353932161791794e-01,1.744176910122505197e-01,1.743437190124828562e-01,1.738824110763237119e-01,1.726223853566070665e-01,1.710061925806176941e-01,1.690975809544346675e-01,1.667324264063059225e-01,1.640447518057894793e-01,1.612229873201074248e-01,1.582546323111726494e-01,1.553129622274647959e-01,1.523048873504556644e-01,1.493028437163314848e-01,1.462976120722987994e-01,1.433714536357513503e-01,1.404213350918701586e-01,1.375941309817032554e-01,1.347627957281046784e-01,1.320021290599797115e-01,1.292423258295767041e-01,1.265222683789599123e-01,1.238390374687641793e-01,1.211601304730420825e-01,1.184776577162084399e-01,1.158502832247811504e-01,1.132282679609993153e-01,1.106045035352228589e-01,1.079827665022960737e-01,1.053331233776627213e-01,1.026962482892279510e-01,1.000309961930004876e-01,9.732349212856782061e-02,9.458894541964708857e-02,9.181853320044966460e-02,8.898906005222818882e-02,8.611238083970920720e-02,8.318793946576012732e-02,8.021734799327277787e-02,7.717134610793688343e-02,7.400420193999204810e-02,7.073555832630426532e-02,6.731786752724965017e-02,6.368386716139022574e-02,5.966399686386442136e-02,5.541632725496147688e-02,5.060952679963764272e-02,4.495770543575291350e-02,3.810857367542573593e-02,2.764792560981832459e-02,1.546184237778295244e-02,nan
nan,1.702733313613673596e-02,2.969418382016011937e-02,3.980463954214982086e-02,4.682136950643575601e-02,5.255406738464585975e-02,5.731889893388443513e-02,6.132023791073037966e-02,6.503297104348146340e-02,6.850708815748429714e-02,7.197458974856078828e-02,7.532372521797187082e-02,7.849034949184283128e-02,8.150762214366019665e-02,8.443724616642248049e-02,8.729149704096977880e-02,9.004034725011814122e-02,9.273807165350533843e-02,9.538772855703733788e-02,9.798678113289940872e-02,1.006146510352748796e-01,1.031957221408560110e-01,1.057994962878861522e-01,1.083789115137837877e-01,1.109267994847862732e-01,1.134929900941218789e-01,1.160404258405454969e-01,1.185800296736855691e-01,1.211300219228883535e-01,1.236746400605804042e-01,1.262480199319156171e-01,1.288578369758802133e-01,1.315141425493908667e-01,1.341551459849123495e-01,1.368594837337427650e-01,1.395697572951464238e-01,1.423149385365131969e-01,1.450877246884622052e-01,1.478521218229698619e-01,1.506032523860766081e-01,1.533739084732810287e-01,1.559976787836593604e-01,1.585475316015917402e-01,1.609552791505583780e-01,1.630751383723373915e-01,1.651359932082270554e-01,1.666941821266847146e-01,1.679826924595631543e-01,1.687349687942933663e-01,1.690230317529981263e-01,1.691278291005917922e-01,1.686627772372104317e-01,1.675751209545615628e-01,1.662597110134397260e-01,1.645693914644943967e-01,1.625332271160992437e-01,1.601818308712987249e-01,1.577408314970254188e-01,1.551057843245809975e-01,1.523641375016427657e-01,1.496809892677152809e-01,1.468594690116698520e-01,1.441583042880919541e-01,1.413841278281111336e-01,1.386623987467939800e-01,1.359131723867079977e-01,1.332129702411688765e-01,1.305413071490846011e-01,1.278967908797713215e-01,1.252599370863291539e-01,1.226404296973789276e-01,1.200292732915302640e-01,1.174257673471209296e-01,1.148539472189824273e-01,1.122624494429063230e-01,1.096801971257531094e-01,1.070688041112643207e-01,1.044896667631019238e-01,1.018745330183494779e-01,9.922864839425331318e-02,9.655633836786049751e-02,9.385348724354447558e-02,9.109313125049145476e-02,8.829091238169815836e-02,8.543400085579819225e-02,8.253012366070559824e-02,7.954229123654030231e-02,7.651048021317786996e-02,7.333457622935038445e-02,6.999469208591166391e-02,6.654006307320468883e-02,6.286927326309375841e-02,5.891240570820042988e-02,5.457789668376933356e-02,4.965891242405422873e-02,4.413947087471320474e-02,3.648708291498507783e-02,2.697805263839792717e-02,1.460036868362528557e-02,nan
nan,1.669363538123404961e-02,2.934361684397764070e-02,3.879331413077893170e-02,4.577317367528689618e-02,5.156381998870666200e-02,5.631007148910297661e-02,6.030677443102530622e-02,6.410455527248253016e-02,6.770986842829368468e-02,7.119324863099812939e-02,7.445955800160160287e-02,7.765579518270540604e-02,8.067949399759211104e-02,8.359099675235842630e-02,8.643412203315176123e-02,8.920638938248669214e-02,9.188339794964303642e-02,9.452518413254268337e-02,9.714568293150836753e-02,9.972235610499044500e-02,1.022880308429028884e-01,1.048497856964273056e-01,1.073901805270296578e-01,1.098891505649039063e-01,1.124100508687121830e-01,1.149034761941392091e-01,1.173971230113771830e-01,1.198941458747737332e-01,1.223778231780029979e-01,1.248611236544409503e-01,1.273855629175515425e-01,1.299295260663045626e-01,1.324232453101992224e-01,1.350638037765318766e-01,1.376220259304897775e-01,1.402283913029071793e-01,1.427981452341944846e-01,1.453947863333057977e-01,1.478751224373253681e-01,1.503289335204346655e-01,1.527875492200742591e-01,1.550878984485417889e-01,1.571802065009295646e-01,1.590875605117439695e-01,1.608459681310487333e-01,1.621352034962890709e-01,1.632740266820992825e-01,1.638865026347347820e-01,1.643624378431520205e-01,1.642882628426699798e-01,1.637367124612444935e-01,1.629642740637286813e-01,1.618594839369736638e-01,1.603427944259571691e-01,1.584921355787174135e-01,1.565361412536374064e-01,1.542989910902342054e-01,1.520341078456871331e-01,1.495370285905620600e-01,1.470542465688509937e-01,1.444700704981277672e-01,1.419292727440932822e-01,1.392981231162879474e-01,1.366336841408267999e-01,1.341334162009328590e-01,1.315686448606114833e-01,1.290017435360107656e-01,1.264482345916396466e-01,1.238478451816515391e-01,1.213378910262616073e-01,1.187918897767222121e-01,1.162674463461240704e-01,1.137442054703140248e-01,1.112122695176245568e-01,1.086711973577462326e-01,1.061086446752549789e-01,1.035492488216426532e-01,1.009636736475277852e-01,9.835728229536395972e-02,9.570753906559108237e-02,9.301705315584195277e-02,9.027967147073168164e-02,8.750117893458025931e-02,8.466192839745897980e-02,8.175965958213232687e-02,7.878864998236331796e-02,7.573163994049376957e-02,7.255666657300911815e-02,6.919693124878396884e-02,6.569055894607961354e-02,6.197256158819093586e-02,5.802484618246088466e-02,5.361496893676723913e-02,4.862810485847642028e-02,4.290116596169202268e-02,3.585486198230980470e-02,2.462458607353109480e-02,1.399689727491232848e-02,nan
nan,1.557381976702729674e-02,2.796361422125605636e-02,3.791034465239198625e-02,4.484699951813557461e-02,5.037643115175918784e-02,5.505383326219823181e-02,5.934708096091213109e-02,6.318348923899355651e-02,6.682963753516540928e-02,7.026248983257638026e-02,7.357105712012576570e-02,7.673802709500303354e-02,7.976367321841179581e-02,8.269595515750768899e-02,8.552361619668807924e-02,8.826920357642736858e-02,9.095955870278421562e-02,9.358917936064688192e-02,9.619596620672657417e-02,9.874920644616191900e-02,1.012848641045000497e-01,1.038024217302961766e-01,1.062885668893935875e-01,1.087592501508222176e-01,1.112336797888573980e-01,1.136740887533391892e-01,1.161102578590038348e-01,1.185598876976021732e-01,1.209728745595859550e-01,1.233994467243022808e-01,1.258025420255541871e-01,1.282771861854071493e-01,1.307118540883619728e-01,1.331575974083431257e-01,1.356285466418448715e-01,1.380744204399388941e-01,1.404486835997083571e-01,1.428460351204190459e-01,1.452037754263601765e-01,1.473656251943796236e-01,1.496653733556302934e-01,1.516427567839322976e-01,1.535280893579631101e-01,1.552806124950302236e-01,1.566834718014847583e-01,1.579396372600812837e-01,1.588723407211445060e-01,1.595088116234681386e-01,1.598290319322082098e-01,1.598061439812138718e-01,1.593563748060415619e-01,1.585977123301364200e-01,1.576634786841293601e-01,1.563094569751706242e-01,1.547402287656249598e-01,1.529672102084752572e-01,1.510336662189151469e-01,1.488915006063414870e-01,1.466754637302120079e-01,1.443897241696652511e-01,1.419769903929875565e-01,1.395996101642743570e-01,1.371256235530253498e-01,1.347439162960657744e-01,1.322931598582490764e-01,1.298261548573300672e-01,1.273824440146875958e-01,1.249040244703464309e-01,1.224288867143064202e-01,1.199638600088866192e-01,1.174903662414907568e-01,1.150425175329170685e-01,1.125505243943599742e-01,1.100664694034374502e-01,1.075686344610157358e-01,1.050621060187144074e-01,1.025224705005620685e-01,9.998174076487853501e-02,9.738425036907191745e-02,9.476963406850599791e-02,9.210447682634873012e-02,8.940859313861514168e-02,8.663135426856641286e-02,8.379613662970933352e-02,8.090904936350323817e-02,7.795199143235619077e-02,7.487976332241122468e-02,7.163875854796299125e-02,6.830931385798148792e-02,6.477047976370584048e-02,6.098477308229859062e-02,5.689387853699616471e-02,5.240420270104230449e-02,4.734389500521684474e-02,4.138477522870698949e-02,3.381518650053046138e-02,2.328188813315227798e-02,1.216830838687543194e-02,nan
nan,1.536521359093751329e-02,2.656987167068949884e-02,3.640723074786941793e-02,4.325827421775183673e-02,4.898936680179924452e-02,5.381000796804920328e-02,5.817551397117313311e-02,6.212544030317100618e-02,6.578736674665748574e-02,6.928346235718302326e-02,7.256489384689973621e-02,7.574169420753115722e-02,7.877441787469849355e-02,8.170563685827790523e-02,8.454193637181001142e-02,8.726214523625708264e-02,8.995814241618622920e-02,9.257815966131435759e-02,9.513766889532496163e-02,9.768784309221589801e-02,1.001936173599309032e-01,1.026762316178153472e-01,1.051252949152834265e-01,1.075620914273790057e-01,1.099740284129831352e-01,1.123839145193410022e-01,1.147613315985990257e-01,1.171502555246967114e-01,1.195204177889015867e-01,1.218605371659390174e-01,1.242166646053439460e-01,1.265167311703759845e-01,1.289047751083579607e-01,1.312226319083925341e-01,1.335552496023598157e-01,1.358405964868328319e-01,1.380550396656298473e-01,1.403474777882883495e-01,1.424587386834404723e-01,1.445307256084695513e-01,1.464901247581123500e-01,1.483468360681245435e-01,1.501071817495652772e-01,1.516131521600320442e-01,1.529209874281913795e-01,1.539347582456728758e-01,1.547519864744869023e-01,1.552963769495731561e-01,1.555603168122282609e-01,1.555493207173302139e-01,1.552692216251730373e-01,1.545656196173826880e-01,1.536568533666213821e-01,1.525423239414859244e-01,1.510968796792344637e-01,1.495202489586645589e-01,1.477511839768240187e-01,1.458588628815674360e-01,1.437978502490060151e-01,1.417432738284030713e-01,1.395353728135277083e-01,1.372983134292725116e-01,1.350198669713579824e-01,1.326925786939779084e-01,1.303505513223629786e-01,1.280182655297495142e-01,1.256456513354030080e-01,1.232934262455156332e-01,1.208910671073122611e-01,1.185240370748172622e-01,1.161255154884586749e-01,1.137057041745508923e-01,1.112896800710845430e-01,1.088627154020317539e-01,1.064046466078464453e-01,1.039277249358958044e-01,1.014489468819340934e-01,9.889857768083633316e-02,9.635156108756914861e-02,9.376096697399385893e-02,9.110965577768129209e-02,8.841898690644293957e-02,8.567480775563623974e-02,8.285609011757089082e-02,7.996962281114622373e-02,7.697676402639838655e-02,7.390263810039877923e-02,7.063602862279821926e-02,6.725337908231884820e-02,6.370340259537433936e-02,5.988860631428893910e-02,5.563339135412496972e-02,5.110573341395638347e-02,4.564049467668740423e-02,3.936244804679695647e-02,3.097845912987795200e-02,2.118243195913055779e-02,1.127361471868446909e-02,nan
nan,1.384758017036800265e-02,2.493221806747843161e-02,3.397313347617226392e-02,4.151871444451089854e-02,4.752878286135828190e-02,5.245929642123577097e-02,5.691016037959321233e-02,6.089989307730056534e-02,6.467360168264381370e-02,6.812343654694136275e-02,7.149043601751223220e-02,7.466447637752682276e-02,7.769854859273016279e-02,8.061890648115031810e-02,8.346094952083059348e-02,8.619015338337435161e-02,8.885840016891649595e-02,9.145862387693494411e-02,9.403863129756281913e-02,9.656039585664380476e-02,9.903822512242008158e-02,1.014822096955216857e-01,1.039139483911256656e-01,1.063065427118884548e-01,1.086828768120820382e-01,1.110135081789478395e-01,1.133554304639658311e-01,1.156665350427480143e-01,1.179662333813787795e-01,1.202241817401681623e-01,1.225162099488563278e-01,1.247526681568638385e-01,1.269827488849544217e-01,1.292015988071206212e-01,1.314078609870381886e-01,1.335717925348200996e-01,1.356845115030629045e-01,1.377638367446779033e-01,1.397649641289158140e-01,1.416916449404785339e-01,1.434965181282803481e-01,1.451805692615957821e-01,1.467218207622004167e-01,1.481540831931695557e-01,1.492705728117485198e-01,1.501668334651148073e-01,1.509448855406089474e-01,1.514371410552138031e-01,1.516198248151927053e-01,1.516197268123061215e-01,1.513083380276231682e-01,1.506596094389254514e-01,1.499491059281068961e-01,1.488856718195034623e-01,1.475541047329137767e-01,1.461864732104271036e-01,1.445204446171501900e-01,1.428747917567593506e-01,1.410013010557439050e-01,1.390574144136560442e-01,1.370139733920586467e-01,1.349611985245743606e-01,1.328113503402177376e-01,1.306008475200381991e-01,1.284230833972275776e-01,1.261592086787738376e-01,1.238908071448075326e-01,1.215791060026357312e-01,1.193083071145935314e-01,1.169910921321658248e-01,1.146579459417445268e-01,1.123177041960505829e-01,1.099368725672119906e-01,1.075729347111878675e-01,1.051725604075526149e-01,1.027402138452865460e-01,1.002676373544511002e-01,9.778793073281105697e-02,9.522729074749188005e-02,9.267378977591549105e-02,9.002442909047869701e-02,8.735957515286768560e-02,8.459745238552966728e-02,8.182439576533656611e-02,7.896806870046374494e-02,7.598267073744159605e-02,7.285531621860769080e-02,6.960861595347068997e-02,6.619230327507084899e-02,6.256777967274475272e-02,5.868445360375592473e-02,5.445198568651196669e-02,4.979775538296213333e-02,4.405655334957706004e-02,3.719657634866448126e-02,2.840723167611043654e-02,1.914344185992708502e-02,1.096032661153725427e-02,nan
nan,1.232875660396083595e-02,2.201491878610074837e-02,3.171049937077478897e-02,3.973571343057451244e-02,4.587831718776677614e-02,5.093531216679186846e-02,5.552652468832528637e-02,5.959491904544887003e-02,6.338169497750696657e-02,6.689305218759322713e-02,7.029441256394465543e-02,7.349890305752881936e-02,7.652231902304626465e-02,7.946541215463645558e-02,8.228070499604170362e-02,8.502915472621072612e-02,8.768909680863434808e-02,9.030118034322415221e-02,9.285406135946920603e-02,9.534927445175890581e-02,9.780271262985382186e-02,1.002326732467146986e-01,1.025942134243814641e-01,1.049516121316073636e-01,1.073037452857781571e-01,1.095976888660923632e-01,1.118718850225625533e-01,1.141192286758173913e-01,1.163508323657016091e-01,1.185667191903092277e-01,1.207610142372970985e-01,1.229255071138499467e-01,1.250687611347222339e-01,1.271839908559289078e-01,1.292698292566233365e-01,1.313208218800839822e-01,1.332865492882436831e-01,1.352259920898420120e-01,1.371000123218689415e-01,1.388554105226266211e-01,1.404992994504044024e-01,1.420851896880224730e-01,1.434557865955193856e-01,1.447309006449535862e-01,1.457925183103770117e-01,1.466553972379889270e-01,1.472769406043627771e-01,1.476768995010124541e-01,1.479336086142770124e-01,1.478423950856559976e-01,1.475922907171454967e-01,1.470737738423320007e-01,1.463468626425437902e-01,1.454048495667727425e-01,1.443249331518336454e-01,1.429525935731146280e-01,1.415193994497367935e-01,1.400074873660023533e-01,1.382361009085979753e-01,1.364490729701728633e-01,1.345177932745259541e-01,1.325844290381438806e-01,1.305558352647084308e-01,1.285146474653794391e-01,1.264084483838101569e-01,1.242641002748480217e-01,1.220820602949425904e-01,1.198748560862519519e-01,1.176585159631267502e-01,1.154109071966923361e-01,1.131391486524259971e-01,1.108695054796778046e-01,1.085556394225666577e-01,1.062127817340175195e-01,1.038491363530339717e-01,1.014578741424552594e-01,9.902427047993536680e-02,9.655966220103590070e-02,9.403837508170974357e-02,9.150091212650164618e-02,8.887865351154823623e-02,8.622661572001984187e-02,8.350404507399461496e-02,8.071525941131479920e-02,7.784071704297290673e-02,7.483418293845103819e-02,7.171155031750142683e-02,6.844307033415203412e-02,6.497059333228945299e-02,6.133471107965226404e-02,5.726225995955479264e-02,5.296918208099443692e-02,4.808064092238320542e-02,4.218532607902310272e-02,3.467241421102362081e-02,2.541702438311281911e-02,1.591594349705396233e-02,9.569058650602570160e-03,nan
nan,1.094495233085999129e-02,1.987327896290480567e-02,2.920031565345185959e-02,3.763921362829697470e-02,4.411218710455649950e-02,4.943322127451358489e-02,5.408445340306849980e-02,5.814988739609846385e-02,6.203466483965660444e-02,6.560646019748908597e-02,6.898863441784656991e-02,7.220608559675409377e-02,7.529487658719366538e-02,7.823431010749044845e-02,8.106130916605763792e-02,8.379661392303082434e-02,8.644389273888222758e-02,8.905146675054952110e-02,9.159190489265184310e-02,9.405613767993316332e-02,9.649483634871051929e-02,9.887342450064015575e-02,1.012270728929719754e-01,1.035575133735862352e-01,1.058426479524758046e-01,1.080908868888176000e-01,1.103085136825025236e-01,1.125174255730204964e-01,1.146875101764576882e-01,1.168418278879412575e-01,1.189580525089631857e-01,1.210311932147451752e-01,1.230648166895110113e-01,1.251085828284529966e-01,1.270450332973354912e-01,1.290047212173515145e-01,1.308833844921936940e-01,1.326993178520912142e-01,1.344398220879158001e-01,1.361036603997693439e-01,1.376123121735738364e-01,1.390109732719067015e-01,1.402981194026414191e-01,1.414660788608652908e-01,1.423855910010207726e-01,1.431804851725771710e-01,1.438199332621910853e-01,1.441676254277634295e-01,1.443354850739584916e-01,1.442867936309662757e-01,1.440895146669796678e-01,1.435956441313442633e-01,1.429656769348763290e-01,1.421178259028723079e-01,1.410503439163266481e-01,1.398411062853374132e-01,1.385404914953083100e-01,1.370866021409326008e-01,1.355057059935739217e-01,1.337916028448026817e-01,1.320450431398913216e-01,1.302097889645109086e-01,1.283046595211649876e-01,1.263615126936518396e-01,1.243221822991153469e-01,1.222878973140795744e-01,1.201708962837643724e-01,1.180840384219613015e-01,1.159331875648692833e-01,1.137591714873995574e-01,1.115526126595427492e-01,1.093252548855765532e-01,1.070757880166479381e-01,1.047897754927301084e-01,1.024558151098485803e-01,1.001093028199604579e-01,9.769611348705976861e-02,9.524894906457745392e-02,9.279214902594039305e-02,9.025347764664509720e-02,8.767318925573958088e-02,8.501767943702470687e-02,8.229237774152013685e-02,7.950554767985784643e-02,7.666529379070745331e-02,7.364686242939311178e-02,7.047640016642719996e-02,6.718067807673440417e-02,6.369512325409688869e-02,5.990179092754598089e-02,5.585735584293574640e-02,5.128300538327731223e-02,4.624396212210062085e-02,3.989959347836065373e-02,3.223365020210963716e-02,2.287871009585863008e-02,1.402200611305127152e-02,8.132639584952470677e-03,nan
nan,8.512692566352673615e-03,1.566259237519780634e-02,2.597874163010296250e-02,3.504274529706971619e-02,4.214277983643342079e-02,4.761336726034724048e-02,5.234998606981948466e-02,5.662306565330557651e-02,6.052063179336387988e-02,6.416176166255484203e-02,6.760839477064817249e-02,7.087564591034162254e-02,7.393162309022502376e-02,7.690774323689436587e-02,7.973783371842950440e-02,8.247974799868998397e-02,8.511667782783233216e-02,8.771413780092829349e-02,9.025739317248432370e-02,9.271347876891782025e-02,9.510933574926930256e-02,9.746179862100443070e-02,9.977950273982136298e-02,1.020528510552205503e-01,1.043149169589039221e-01,1.065252324760238289e-01,1.086934094619529945e-01,1.108462211616133425e-01,1.129454298035129783e-01,1.150357250565739176e-01,1.170832738880560886e-01,1.190863896358556051e-01,1.210583522190057104e-01,1.229965500495567576e-01,1.248579168933643679e-01,1.266880755114350721e-01,1.284584816974627675e-01,1.301784034320891403e-01,1.317932980515889030e-01,1.333181350181346092e-01,1.347875300456850833e-01,1.360463184061114217e-01,1.372457739019780076e-01,1.382437857982480589e-01,1.391160384056790433e-01,1.398686447064843574e-01,1.404146044035273488e-01,1.407542765544786412e-01,1.409301476258771335e-01,1.408891864586218623e-01,1.406776896397887167e-01,1.402501961847184841e-01,1.396606251074220817e-01,1.388803130121779028e-01,1.379601966606358032e-01,1.368437501816495427e-01,1.356200777004025748e-01,1.342870634561212362e-01,1.327914423776049568e-01,1.312250708050759496e-01,1.295463561751100390e-01,1.278415441313370815e-01,1.260342266914382114e-01,1.241650964956888259e-01,1.222527094686773341e-01,1.202452415320709178e-01,1.182908164697740183e-01,1.162542846926150342e-01,1.141576923864144194e-01,1.120604957767361437e-01,1.099040082591530854e-01,1.077373330514808658e-01,1.055149025401452001e-01,1.032669212686510851e-01,1.010095226968259485e-01,9.868048885614671972e-02,9.631701867133495021e-02,9.390326187239592115e-02,9.144279545854508418e-02,8.893615561345526166e-02,8.634483062550712962e-02,8.369355118263054061e-02,8.099666874351291179e-02,7.826440105621026988e-02,7.535262521471570996e-02,7.232301972811491786e-02,6.914943953894313322e-02,6.579448980231826505e-02,6.229045211335337839e-02,5.846361158191330787e-02,5.418916750277774641e-02,4.949314890554278729e-02,4.402450119757039121e-02,3.762555907571576985e-02,2.954656902010030506e-02,2.082852818672539449e-02,1.346795909841909215e-02,7.764146042579959071e-03,nan
nan,7.467431863540721637e-03,1.333481728204874775e-02,2.237536375850500414e-02,3.194342806597846862e-02,3.960391856023375706e-02,4.538603109666900642e-02,5.052768738038736218e-02,5.489993577194818286e-02,5.887729074433169230e-02,6.267419118276211509e-02,6.613974858418067426e-02,6.937524454307544830e-02,7.251844879075719508e-02,7.548146734913982470e-02,7.834301744401285517e-02,8.108481019391192146e-02,8.372879246318065682e-02,8.631355436566735817e-02,8.883121217582630458e-02,9.127882499080604284e-02,9.366538385442872705e-02,9.599471906079429240e-02,9.828060352770515151e-02,1.005333002304199530e-01,1.027406207949738415e-01,1.049062609074156160e-01,1.070405819648828638e-01,1.091312788261958044e-01,1.111904345081041745e-01,1.132028832810462182e-01,1.151729115735662945e-01,1.171028872068672066e-01,1.190151675963872085e-01,1.208470664388288651e-01,1.226390443567152017e-01,1.243915271690504698e-01,1.260815163909646819e-01,1.276706332688974932e-01,1.291847462553603609e-01,1.306179902851977714e-01,1.319578569407650614e-01,1.331535714303787032e-01,1.342359186754073508e-01,1.351913412853516794e-01,1.360219754097999056e-01,1.366693000116604995e-01,1.371244938353155529e-01,1.374952634764096682e-01,1.376042540021604199e-01,1.375886084248847396e-01,1.373762236136945036e-01,1.369856532727562193e-01,1.364508515400810196e-01,1.357588790312619920e-01,1.348866019149012607e-01,1.338864727256127152e-01,1.327588476365895165e-01,1.314828414370267096e-01,1.301363974727731410e-01,1.286350738294433915e-01,1.271076950213231582e-01,1.254609382520733563e-01,1.237526875999924864e-01,1.219715151189585955e-01,1.201419905608943073e-01,1.182590934012553441e-01,1.163453988899718489e-01,1.143515984720392675e-01,1.123485203857146064e-01,1.102920284035771442e-01,1.082099822021880819e-01,1.060889562650022683e-01,1.039110919493181490e-01,1.017327669837604365e-01,9.948179935337461699e-02,9.718699591837688667e-02,9.485565278531063460e-02,9.246969110847913509e-02,9.004441573738650173e-02,8.754956273916356113e-02,8.496283587710548590e-02,8.233428106611202779e-02,7.962790837578623271e-02,7.683663033677638754e-02,7.393969730907634652e-02,7.089643477920448689e-02,6.768835311908757979e-02,6.433583851036510370e-02,6.072797089540563076e-02,5.680042006575343472e-02,5.244364358581734414e-02,4.753424067747139686e-02,4.194642345652245530e-02,3.533234888115374672e-02,2.743113922163590429e-02,1.881545848901566495e-02,1.237135855783507224e-02,7.549344423872105317e-03,nan
nan,6.677489455801904894e-03,1.063736380145580487e-02,1.948439484168382196e-02,2.898709145699236711e-02,3.663888286901433727e-02,4.321379959848144908e-02,4.832181296042223351e-02,5.303000280842608272e-02,5.718240312622162314e-02,6.099614857076170182e-02,6.453597420398403395e-02,6.781821702112655892e-02,7.097289489140819196e-02,7.394935679272141016e-02,7.683064601609093658e-02,7.958773242114595969e-02,8.224093685157987665e-02,8.483601014306701993e-02,8.734324508210267179e-02,8.976967494755153099e-02,9.214304660858971263e-02,9.444214606768303044e-02,9.671176614568446905e-02,9.891624249513086831e-02,1.010959353797218213e-01,1.032322017442767470e-01,1.053133919690772691e-01,1.073634060293896797e-01,1.093643307725319785e-01,1.113093169080412725e-01,1.132319292703000690e-01,1.150964461620231777e-01,1.169243140384510077e-01,1.187018272727732998e-01,1.204303800710424671e-01,1.220584566738237564e-01,1.236572079755959841e-01,1.251610791008998247e-01,1.266048223206105716e-01,1.279531555652722585e-01,1.291736916554059866e-01,1.303264686999267563e-01,1.313341620444138935e-01,1.322341504526987621e-01,1.329803774851500697e-01,1.336054220905422973e-01,1.340167252864879477e-01,1.343341397913785096e-01,1.344324199993831570e-01,1.344311122834787320e-01,1.342344217055916056e-01,1.339014830166057324e-01,1.333939223682371888e-01,1.327295765333022515e-01,1.319105935502578320e-01,1.310142472979156647e-01,1.299361132701070953e-01,1.287429023086009428e-01,1.274716734084410108e-01,1.260837919787419770e-01,1.246362863874203586e-01,1.230941704125196323e-01,1.214480895654656278e-01,1.197473664693908674e-01,1.180003086970937559e-01,1.161814899288095143e-01,1.143468389387321260e-01,1.124341713081325050e-01,1.104839025169271904e-01,1.084859557875475916e-01,1.064616120833233870e-01,1.043882841078997981e-01,1.022660933869443678e-01,1.001226133955683273e-01,9.788893052654534799e-02,9.564035531469936013e-02,9.332570514161883657e-02,9.097213816455340663e-02,8.856923299564800622e-02,8.605772590675539457e-02,8.352679445030242178e-02,8.087899548863050625e-02,7.817288713211156814e-02,7.536545108318520869e-02,7.243753499328109413e-02,6.940131788259998324e-02,6.615647324261647588e-02,6.265263069137064211e-02,5.899860320622121040e-02,5.491812423404093813e-02,5.040921821934943314e-02,4.518046003387654608e-02,3.927197671714598159e-02,3.288665296461561194e-02,2.513728261896313460e-02,1.605566742449937578e-02,9.902620248105850967e-03,6.345452953608526035e-03,nan
nan,6.017759558348869872e-03,9.872514138533424952e-03,1.660738079494951044e-02,2.554089481479842119e-02,3.356350012046666054e-02,4.034483385457607318e-02,4.610553386918114782e-02,5.096618398025683921e-02,5.522497670911878653e-02,5.917584682019567249e-02,6.278966518806602948e-02,6.613719672491941148e-02,6.936080382327622362e-02,7.237304324622538532e-02,7.525291489930222011e-02,7.802255103740993181e-02,8.069375100384178212e-02,8.326863564361801362e-02,8.577530930433527323e-02,8.820271271413790415e-02,9.053868528950234640e-02,9.284762778924304794e-02,9.507302059647872172e-02,9.726158526003972349e-02,9.939619197092716685e-02,1.014971532550373312e-01,1.035207545989225431e-01,1.055323953541208448e-01,1.074723649917967150e-01,1.093865063791125414e-01,1.112423046851649250e-01,1.130605376005150015e-01,1.148206272752669427e-01,1.165094345827125399e-01,1.181611035271168120e-01,1.197360724929457942e-01,1.212712019765646299e-01,1.226785571337356828e-01,1.240573006453611349e-01,1.253018189600358379e-01,1.264732054014837681e-01,1.275278981881099449e-01,1.284926173824767481e-01,1.293126055363995608e-01,1.300266620122132177e-01,1.305656263080544888e-01,1.309905852789181591e-01,1.312389836694067835e-01,1.313909067498016392e-01,1.313492809777654091e-01,1.311500399563246266e-01,1.308744433961118725e-01,1.304140396435545246e-01,1.297573780415899602e-01,1.290096668284316239e-01,1.281489391985860260e-01,1.271641072225723479e-01,1.260729305300224978e-01,1.248670585806295474e-01,1.235744200305295137e-01,1.221799265248248584e-01,1.206959049416666818e-01,1.191441439148624021e-01,1.175214655638022326e-01,1.158449726445254790e-01,1.140929400368943525e-01,1.123028739693673062e-01,1.104695846993176134e-01,1.085806830190655797e-01,1.066477387997332299e-01,1.046545796521978627e-01,1.026256626250020426e-01,1.005579112409410308e-01,9.842072603717118284e-02,9.623783688524055469e-02,9.402080600215641237e-02,9.173126733434791569e-02,8.938114019669429755e-02,8.699275171570100551e-02,8.450131482614303691e-02,8.198748789943900717e-02,7.935523256694050620e-02,7.663810895694284087e-02,7.381784655420842167e-02,7.086149099065593149e-02,6.776478913200126297e-02,6.447099472986413116e-02,6.098827066026005911e-02,5.718599380206762506e-02,5.300912597481268612e-02,4.828145792070435982e-02,4.274624131379286401e-02,3.648446719125462978e-02,2.981931911633829702e-02,2.180131200513086079e-02,1.332446302195132437e-02,8.278275632085886973e-03,5.039627512733817725e-03,nan
nan,5.183548678931896442e-03,8.469617850600892270e-03,1.405080015013388493e-02,2.176212279307712660e-02,3.041982523372209826e-02,3.770287642155457919e-02,4.353891454025180657e-02,4.860184083102391667e-02,5.315966622440397582e-02,5.720261240099526467e-02,6.088386407926434096e-02,6.437378232358488550e-02,6.762673966419410765e-02,7.066816511913223686e-02,7.358663925583172616e-02,7.636707945393067520e-02,7.904389169955099159e-02,8.161278879050651303e-02,8.412034444863870919e-02,8.653991681529334123e-02,8.888462546685710342e-02,9.115266828421793310e-02,9.338162892216181343e-02,9.554574283890443498e-02,9.764074009563972201e-02,9.969486268598326539e-02,1.017067184183363393e-01,1.036470147855811375e-01,1.055695601719935373e-01,1.074379082411946879e-01,1.092307130842739976e-01,1.109852087222521211e-01,1.126756449709865743e-01,1.143150667283032024e-01,1.159078147983126916e-01,1.174128105207921935e-01,1.188201443301231119e-01,1.202183486809406676e-01,1.214648138129664490e-01,1.226927654544914537e-01,1.237897108341643460e-01,1.247925115226047599e-01,1.257017615418523637e-01,1.264339935034820284e-01,1.271046890850012212e-01,1.276254156865281042e-01,1.280190627200819831e-01,1.282637500360508387e-01,1.283629151850953221e-01,1.283460405978149588e-01,1.281906560215907986e-01,1.279089995783276590e-01,1.274701184086151629e-01,1.268745823641937442e-01,1.261757142163467404e-01,1.253876979158294047e-01,1.244295836817443102e-01,1.234132372071410910e-01,1.222767461782437587e-01,1.210318695265863581e-01,1.196861750566931282e-01,1.183124349936072045e-01,1.168266140075465281e-01,1.152720583605109789e-01,1.136777586081706010e-01,1.119959653114589865e-01,1.102757446086053555e-01,1.084647201837279501e-01,1.066201571323300290e-01,1.047403234690946761e-01,1.027933306755591941e-01,1.008054398519869638e-01,9.876320960518253367e-02,9.666779747517867394e-02,9.453557307386355191e-02,9.233578093640608386e-02,9.006280926764317907e-02,8.773800164309268623e-02,8.535512776857902273e-02,8.289198189173099807e-02,8.033844221026460730e-02,7.773680405450811293e-02,7.497275118317837939e-02,7.217358620204379627e-02,6.919256933726722347e-02,6.606093848065722196e-02,6.271152812192112846e-02,5.914819313978660065e-02,5.521518299775440147e-02,5.094913483256951342e-02,4.596063302909703108e-02,4.045943511723687491e-02,3.417552857038441694e-02,2.623849594025044404e-02,1.811654702051654353e-02,1.128905959184087725e-02,7.251486708325229763e-03,4.562074091057109933e-03,nan
nan,4.258271553812385812e-03,7.264680414609267847e-03,1.220010109589089904e-02,1.811343241077280342e-02,2.637085937728403037e-02,3.416153906344379654e-02,4.054046286732675142e-02,4.598306538806637422e-02,5.092696877015921719e-02,5.506752358320243790e-02,5.888382715392763422e-02,6.244526473901367003e-02,6.571613817199746521e-02,6.884364910778624502e-02,7.178485768032993874e-02,7.461136575679697125e-02,7.732303259502715242e-02,7.992202560591044058e-02,8.240146738945872129e-02,8.480727707059271259e-02,8.715693787910669399e-02,8.940505225719062865e-02,9.160493079717858811e-02,9.375360478922051266e-02,9.582609456553267679e-02,9.785720138310827210e-02,9.982770699569487594e-02,1.017435308274860228e-01,1.036038507684969440e-01,1.054109412310778870e-01,1.071534513928696086e-01,1.088765249525213696e-01,1.105315153546008455e-01,1.121056272726596997e-01,1.136302439073866855e-01,1.151059429919858712e-01,1.164672265201361634e-01,1.177562719405171321e-01,1.189669302966143427e-01,1.201185106182478535e-01,1.211519273490292148e-01,1.220740240028598544e-01,1.229159942330319416e-01,1.236571557911129160e-01,1.242707627497376538e-01,1.247386363542916515e-01,1.251181672502124087e-01,1.253429917099752045e-01,1.254418804301115076e-01,1.254263095513389048e-01,1.252506074794360325e-01,1.250101466824480867e-01,1.245850833534243307e-01,1.240519295865773197e-01,1.233865806745873539e-01,1.226242438666052814e-01,1.217489290918219308e-01,1.207696476691680482e-01,1.197067016103786491e-01,1.185084134279118795e-01,1.172409300839085122e-01,1.159187922198917503e-01,1.144983026281241878e-01,1.130035930569553149e-01,1.114597700067564839e-01,1.098497755729316017e-01,1.081826495777773733e-01,1.064390817449958199e-01,1.046222077810618212e-01,1.027844965852195563e-01,1.008908527317297493e-01,9.892343634180272849e-02,9.691864452763207516e-02,9.488056140697254115e-02,9.275837148949082900e-02,9.056286972941748892e-02,8.833088897506802262e-02,8.601545187515928503e-02,8.363403269717183119e-02,8.119478120820447509e-02,7.867978405668771269e-02,7.601868083495971762e-02,7.326855304311634398e-02,7.037993471067752194e-02,6.742285568739889157e-02,6.419093589899392549e-02,6.077722343751539025e-02,5.709737951900868691e-02,5.307417007351513533e-02,4.861309121340151584e-02,4.321847738741429329e-02,3.775901522942982924e-02,3.035904141560133440e-02,2.294165128535941012e-02,1.476585092526918296e-02,9.391732225931245792e-03,6.180665735522444283e-03,3.755074701621232639e-03,nan
nan,3.592555791067503050e-03,6.269279922699969379e-03,9.368423662354572953e-03,1.407959783508335415e-02,2.164534565093682861e-02,3.017732693970248681e-02,3.724918164321685404e-02,4.335181587528097458e-02,4.834747304449359823e-02,5.274533711852787132e-02,5.671878467763558779e-02,6.031882880615380138e-02,6.373768195256816760e-02,6.692874084877829810e-02,6.988031465797714392e-02,7.277935164073319474e-02,7.549505461339631185e-02,7.808271934413028859e-02,8.059040722646305943e-02,8.300881393861728186e-02,8.533035557597998255e-02,8.758101742179945359e-02,8.977057862548221134e-02,9.190125029660917155e-02,9.395591738310912766e-02,9.594615626266270181e-02,9.789877177738551262e-02,9.977529421346498228e-02,1.016019525387083788e-01,1.033567847737895395e-01,1.050699340700477213e-01,1.067361951520255925e-01,1.083371110547112909e-01,1.098742291673348859e-01,1.113291822175203338e-01,1.127710192099106029e-01,1.140494814951878988e-01,1.152712599577437741e-01,1.164412242118211538e-01,1.175448934682457869e-01,1.185181195751852934e-01,1.193943825424573502e-01,1.201977897040379661e-01,1.208986398351861308e-01,1.214722907423470000e-01,1.219203315625140560e-01,1.222638493851155722e-01,1.224759888744925279e-01,1.226005068565812067e-01,1.225854343383262629e-01,1.224177767675567463e-01,1.221527159050350697e-01,1.217483218076710616e-01,1.212763136783177598e-01,1.206535366503048295e-01,1.199356143685035292e-01,1.190891326591805160e-01,1.181593901335531022e-01,1.171443875708479687e-01,1.160083424866510809e-01,1.147964041374699012e-01,1.135232024070297607e-01,1.121585604563846983e-01,1.107482660920369871e-01,1.092294424791219326e-01,1.076644483099455374e-01,1.060557829533060603e-01,1.043559825205974539e-01,1.025956541058564292e-01,1.008073219322159347e-01,9.893064685077762599e-02,9.700184228931205133e-02,9.503735871109732225e-02,9.302085704122245446e-02,9.089563072040895975e-02,8.875212543739459392e-02,8.652395943033838743e-02,8.420996116113212138e-02,8.182942230106479697e-02,7.943712146475892522e-02,7.688458752926159712e-02,7.423911797143971369e-02,7.143875801773286183e-02,6.853427352130080086e-02,6.544106206034620843e-02,6.223441009712975258e-02,5.872494979211589916e-02,5.489499492425801985e-02,5.076807705401220616e-02,4.603777648926506150e-02,4.062483385131647473e-02,3.396111452983687634e-02,2.660476590341174716e-02,1.854020985991086320e-02,1.151020143104949586e-02,7.682597346919167215e-03,5.091704729219927346e-03,3.018816716602820607e-03,nan
nan,2.768209941489372782e-03,5.100791235013417066e-03,7.509714617603427400e-03,1.131339739092423330e-02,1.744678553831874313e-02,2.552932424600479200e-02,3.351693538313482018e-02,4.016208712144241078e-02,4.550194276853151976e-02,5.026617174379246350e-02,5.425628060609824499e-02,5.812665021049646247e-02,6.159654546377958673e-02,6.485155759142967324e-02,6.791999223384201367e-02,7.078807428280012304e-02,7.355685380294146869e-02,7.618761273263530143e-02,7.870707352535306900e-02,8.111061681295325676e-02,8.345378847793191723e-02,8.568863621817118803e-02,8.785700949950416005e-02,8.997887698024852055e-02,9.201189711163199059e-02,9.398932469900016240e-02,9.589719108556023219e-02,9.773659707004939134e-02,9.954901908391669552e-02,1.012820414652511464e-01,1.029430965976861762e-01,1.045676467174795066e-01,1.061138079589811212e-01,1.076001448098772711e-01,1.090092678101263202e-01,1.103578999294912294e-01,1.116261694130180476e-01,1.128241981085187640e-01,1.139627246284301287e-01,1.149726199315852515e-01,1.159208247756592647e-01,1.167789315039593490e-01,1.175163840543675814e-01,1.181585483932831443e-01,1.187090650893998789e-01,1.191421822041772438e-01,1.194637556076296736e-01,1.196987276047614124e-01,1.197881119567609509e-01,1.197551269134627394e-01,1.196034541161760112e-01,1.193598757330717464e-01,1.190173936639068036e-01,1.185379091861421402e-01,1.179325872346238535e-01,1.172561109637901972e-01,1.164587745921965983e-01,1.155847268249958898e-01,1.145967481191444148e-01,1.135077463079938176e-01,1.123608385372938806e-01,1.111126438310568731e-01,1.098156275315464725e-01,1.084472609553684408e-01,1.069776654037064567e-01,1.054589216251090034e-01,1.038684390978498739e-01,1.022261277729531043e-01,1.005216656437811634e-01,9.874779583781007064e-02,9.692657598020150422e-02,9.503522264886118953e-02,9.309011855107386657e-02,9.107844178157618875e-02,8.900487375153427749e-02,8.686127261681191036e-02,8.464151495636138001e-02,8.233324053019336342e-02,7.996534604885552344e-02,7.759174841487867513e-02,7.499034011433444724e-02,7.231894374533222314e-02,6.952922721403365092e-02,6.652348262355277375e-02,6.344282299808198800e-02,6.006837477972570838e-02,5.649493502471566314e-02,5.253592321539271581e-02,4.822942911136497007e-02,4.321202504161731489e-02,3.725325452130640036e-02,3.009501356180978304e-02,2.184391424184030719e-02,1.513101182599387029e-02,9.833011367497212357e-03,6.351015737823859954e-03,3.977631594452359434e-03,2.080403239998588043e-03,nan
nan,1.852966695392441708e-03,3.986991130658352686e-03,6.137123490689988178e-03,8.955842497635774918e-03,1.355397530604202788e-02,2.102102162193568088e-02,2.944277780029167305e-02,3.654464053075989760e-02,4.251498262505741532e-02,4.743154952692507642e-02,5.176288908368557873e-02,5.571458060485238312e-02,5.931886584345993918e-02,6.267065725217804695e-02,6.578866738105101919e-02,6.873470454080979342e-02,7.153352845379912228e-02,7.415914525155170578e-02,7.671427628478250105e-02,7.915796482612377782e-02,8.148462559942031003e-02,8.373750767068900702e-02,8.589200626280528439e-02,8.798546495020205527e-02,9.000806877627788583e-02,9.197098093236069638e-02,9.384890958269284655e-02,9.568189107417479633e-02,9.742527717334292792e-02,9.913538237223157301e-02,1.007747639031456310e-01,1.023505987586834920e-01,1.038514341717274303e-01,1.053092661644098593e-01,1.066864510691207940e-01,1.079946002726244331e-01,1.092188268154385133e-01,1.103585615180258939e-01,1.114315986933708952e-01,1.124337628088871721e-01,1.133289439716348018e-01,1.141510962849886235e-01,1.148621393229652121e-01,1.154757994344708383e-01,1.159923479699537241e-01,1.164101214048843952e-01,1.166941352010661265e-01,1.169227723895377435e-01,1.170062771208725538e-01,1.169730813874584885e-01,1.168567563894625516e-01,1.166323577335360573e-01,1.162530374389312282e-01,1.158155365980648166e-01,1.152652712389515138e-01,1.145986499571406692e-01,1.138548021641958286e-01,1.129910002337576047e-01,1.120258927818046646e-01,1.110106518904906275e-01,1.098974409334697588e-01,1.087250028529131995e-01,1.074569456038107218e-01,1.061149468788241679e-01,1.047031200629319481e-01,1.032256346159524663e-01,1.016947501329661940e-01,1.000802821633345330e-01,9.839307121450857618e-02,9.667539152328613605e-02,9.486080426698810519e-02,9.300701970535177332e-02,9.107392269600472767e-02,8.908488282000326386e-02,8.701100410017793829e-02,8.488141286786128614e-02,8.268945461070854874e-02,8.037628772850201331e-02,7.803524103534023593e-02,7.561464328675036872e-02,7.304760385077728457e-02,7.030517459823172610e-02,6.743120554141093792e-02,6.445849806318010300e-02,6.123463880673468696e-02,5.780806395951396809e-02,5.407015465905558316e-02,5.004793976119108895e-02,4.520418982387841567e-02,3.980931370832054700e-02,3.300378411768492559e-02,2.590603232530710662e-02,1.806974767683197647e-02,1.218872498018077830e-02,7.729866158255442772e-03,5.060817826246628848e-03,2.839267867848674354e-03,1.335625579764675944e-03,nan
nan,1.084377420616175003e-03,2.713771163584085752e-03,4.694979941766232873e-03,7.343575332591888681e-03,1.064477344380758764e-02,1.643807379329263393e-02,2.463558675309024740e-02,3.210074752560841682e-02,3.891273393636231204e-02,4.432300535357477228e-02,4.908291558986231651e-02,5.314678219283582028e-02,5.684792899216546680e-02,6.031374592483372543e-02,6.353808793011189726e-02,6.652638661749331328e-02,6.940283786237645691e-02,7.210326201218665576e-02,7.463217022136675594e-02,7.708591749836296581e-02,7.944033578409132046e-02,8.167700322164134219e-02,8.384299911561743368e-02,8.592141813126956407e-02,8.794750371894947960e-02,8.987604913440080945e-02,9.175679429248322083e-02,9.354612344635002130e-02,9.529089986320848915e-02,9.696239676567634802e-02,9.856802544464215998e-02,1.001108797782991888e-01,1.015790907448195779e-01,1.030031632472280245e-01,1.043331737491780403e-01,1.056004885418032058e-01,1.067756968262973394e-01,1.078951261144342616e-01,1.089282511859107905e-01,1.098827054224166822e-01,1.107506500931186993e-01,1.114990662806391725e-01,1.122151382537611292e-01,1.128161479103882564e-01,1.133061508698495479e-01,1.136911604527143793e-01,1.139990867789977408e-01,1.141733099793941497e-01,1.142480443217893937e-01,1.142462005975785760e-01,1.141201966954619590e-01,1.138509363434649785e-01,1.135552035028388612e-01,1.130985902066897753e-01,1.125854367104747594e-01,1.119533408588332113e-01,1.112289990471843348e-01,1.104016074126514396e-01,1.095121606425794314e-01,1.084997099121870617e-01,1.074514303879357258e-01,1.063010077342456672e-01,1.050686914169265129e-01,1.037619060903106211e-01,1.024038489894898152e-01,1.009472518511496802e-01,9.945594344588122582e-02,9.786113086845288356e-02,9.623290971510373160e-02,9.453337695503337412e-02,9.276224320133749646e-02,9.092210349525724211e-02,8.900866268096810363e-02,8.703759551502537883e-02,8.498300556470825273e-02,8.284668656550875365e-02,8.062537572554739906e-02,7.835006804835628613e-02,7.598825254852971389e-02,7.351714139813181337e-02,7.091443802452181144e-02,6.815998222822026997e-02,6.527579443554384908e-02,6.217736618638867313e-02,5.887389618861086499e-02,5.518116097540688714e-02,5.147049555046570579e-02,4.713709844975413205e-02,4.176986757603358413e-02,3.632767918463377516e-02,2.893764266567697835e-02,2.101182667194855663e-02,1.389623326596909660e-02,9.089345106531237367e-03,6.044042068540764548e-03,3.719298990566091180e-03,1.783727341325857477e-03,7.711408844912876316e-04,nan
nan,6.395476553301648838e-04,1.714346764355540939e-03,3.580227618941013087e-03,5.927284910566030240e-03,8.912103650293209250e-03,1.281013000452488511e-02,1.970983706058158924e-02,2.744000805389210790e-02,3.477975792292312129e-02,4.084260927345298442e-02,4.610886767750895648e-02,5.032666002350852374e-02,5.418311514673808393e-02,5.778494968966627759e-02,6.108588127072907270e-02,6.421509273348458002e-02,6.708590052470526921e-02,6.987080878889583013e-02,7.244274040085978139e-02,7.493175621868890246e-02,7.727838184386735809e-02,7.953938246792092992e-02,8.172377247842307901e-02,8.379532119407974433e-02,8.580815262612917493e-02,8.773268290419863891e-02,8.957563452223919753e-02,9.137746535750955468e-02,9.309468150832489464e-02,9.472452388873477125e-02,9.631277375072661018e-02,9.781829685657074391e-02,9.927678964041353193e-02,1.006441193880073387e-01,1.019574784785205190e-01,1.031967048272733334e-01,1.043465635500794297e-01,1.053939161073135788e-01,1.064113985130150930e-01,1.073344797820489915e-01,1.081542579044956209e-01,1.089220722347814252e-01,1.095818700268951229e-01,1.101373312235374713e-01,1.106109665494302841e-01,1.110071078157186808e-01,1.112776444471959419e-01,1.114514880799832991e-01,1.115383931855917221e-01,1.115274950841975976e-01,1.113973230779151669e-01,1.111698710188159106e-01,1.108606747898332190e-01,1.104488802777129353e-01,1.099421755524357114e-01,1.093175177430262546e-01,1.086261138966543305e-01,1.078328925325964527e-01,1.069565548613320288e-01,1.060009968802555907e-01,1.049821219347550627e-01,1.038453564941473756e-01,1.026552376849716730e-01,1.013966928352946495e-01,1.000682779442935155e-01,9.865343764971756801e-02,9.715536675901037533e-02,9.562029141195067805e-02,9.400155844520874382e-02,9.233798360998615729e-02,9.058068759289417127e-02,8.876805650925470581e-02,8.688427532811267284e-02,8.492586385215410150e-02,8.285533876094189343e-02,8.073449937126614406e-02,7.851238398975166066e-02,7.622294306353719073e-02,7.379249613820718090e-02,7.134019350767495382e-02,6.869915580365025531e-02,6.588871180982702747e-02,6.289905457751637785e-02,5.978680861906119498e-02,5.632338621531163964e-02,5.261947549650190792e-02,4.846738622819442288e-02,4.373258840903120059e-02,3.827442939863841265e-02,3.163623954113376630e-02,2.385461617292287256e-02,1.673491825968020236e-02,1.144534779285535930e-02,7.294575535450925109e-03,4.587724788475376625e-03,2.525280525005381155e-03,1.067011483165474731e-03,4.277318050671962725e-04,nan
nan,3.458576836899754890e-04,1.235812585837879705e-03,2.548577501722703968e-03,4.718030251285699507e-03,7.195968634599400442e-03,1.065704565142330459e-02,1.505485432510695644e-02,2.203444869913325638e-02,3.002092949727271087e-02,3.693960694789236859e-02,4.266209563155790030e-02,4.727401453684928340e-02,5.138511820594018897e-02,5.498625880807987004e-02,5.852380575227801585e-02,6.174567270068671843e-02,6.472702331549337607e-02,6.749822031740067285e-02,7.018235201208847251e-02,7.267287110156814278e-02,7.504843667535597562e-02,7.731911226000752480e-02,7.950430285667196839e-02,8.159951295159402485e-02,8.359136845832973450e-02,8.549589875211707768e-02,8.734775288336465993e-02,8.911896775899258438e-02,9.084002632871411576e-02,9.245213018335912691e-02,9.401705654207215268e-02,9.550321696596644760e-02,9.691785078031701917e-02,9.827151831080298272e-02,9.954605626008755648e-02,1.007491757355083034e-01,1.018774129261522943e-01,1.029234048638892063e-01,1.038836488443518891e-01,1.047707313159395165e-01,1.055969436844570869e-01,1.063007707816553959e-01,1.069376401796481024e-01,1.074912807346935090e-01,1.079280664643938459e-01,1.083154961689095364e-01,1.085896041844588433e-01,1.087442194267479456e-01,1.088317000581282556e-01,1.088147978176471214e-01,1.086872816811480791e-01,1.084857306527577669e-01,1.081958051929199222e-01,1.077886799954893837e-01,1.072849144133604660e-01,1.066951845655960407e-01,1.060267402360872274e-01,1.052620501823457178e-01,1.044278972533591449e-01,1.035039558426946171e-01,1.024804417054353267e-01,1.013992609210509210e-01,1.002399878470616040e-01,9.899789283806492701e-02,9.768800226596544012e-02,9.629078399467919103e-02,9.484542514745314401e-02,9.332645549894022508e-02,9.174824076136080253e-02,9.006748708611311827e-02,8.836932508091152605e-02,8.655660399080358780e-02,8.467867538753190426e-02,8.271323983664728707e-02,8.067173939217696377e-02,7.851838586450601842e-02,7.631790245957249808e-02,7.397247645092183688e-02,7.157961097160715769e-02,6.902043748699893122e-02,6.632689398216184973e-02,6.347301796628725123e-02,6.042965942941024710e-02,5.715434628925207539e-02,5.361880573028107722e-02,4.954358795871902782e-02,4.523899084310425284e-02,4.006682884154016272e-02,3.395802016126590189e-02,2.686389464571931063e-02,1.954321061671471238e-02,1.292382619904522238e-02,8.510915854767656802e-03,5.678114857385051575e-03,3.097526580466366999e-03,1.371565368347607127e-03,4.287305628401845035e-04,1.373275373849603374e-04,nan
nan,2.077328135306366510e-04,6.650926313928782422e-04,1.643978707969143312e-03,3.145123570506532309e-03,5.383385643492496347e-03,8.070417122771830765e-03,1.086737893880272005e-02,1.652319261723979651e-02,2.395580504936564020e-02,3.255884441878954122e-02,3.864646394146564051e-02,4.390472703451529096e-02,4.827980396799429197e-02,5.209293303427033062e-02,5.567931993582069666e-02,5.902768883668028932e-02,6.212784718506640658e-02,6.503303884167463411e-02,6.775129351594422200e-02,7.028850278874546054e-02,7.269769745354875967e-02,7.499297575829208529e-02,7.720354237656774921e-02,7.929552163128689157e-02,8.132122455409751538e-02,8.322722709727591039e-02,8.505085455539540540e-02,8.682849450738966413e-02,8.850795227091359796e-02,9.012142805144203461e-02,9.166077845961163872e-02,9.312656178095558845e-02,9.453703332712656837e-02,9.584622118936553248e-02,9.710123987529706291e-02,9.827558528596305742e-02,9.938447839296896125e-02,1.003954563784200948e-01,1.013491110363083925e-01,1.022056706351976429e-01,1.030050166481424473e-01,1.037037582641842787e-01,1.043176549927212760e-01,1.048500158265326249e-01,1.052994730299593035e-01,1.056511663642718812e-01,1.059021982560856556e-01,1.060545071921352445e-01,1.061302837126322229e-01,1.061173109967130102e-01,1.060055814732341062e-01,1.058133743050794218e-01,1.054980793209390894e-01,1.051125388789454496e-01,1.046358293738411938e-01,1.040782423139728630e-01,1.034192784519680081e-01,1.026804871384343898e-01,1.018707516445559597e-01,1.009640131417881698e-01,9.995537202503182450e-02,9.890663823795543819e-02,9.776757959598969538e-02,9.655753442087303129e-02,9.526008798045296211e-02,9.389617199252001112e-02,9.246203561226126744e-02,9.098929193816851502e-02,8.941057187964430997e-02,8.777635337798922466e-02,8.607097414256187351e-02,8.426517276224661235e-02,8.238069427932789845e-02,8.043178282459916006e-02,7.836435302143911208e-02,7.623583414028929639e-02,7.399372443686164091e-02,7.165285153702471987e-02,6.920993290901247819e-02,6.660849429656767740e-02,6.383485881808806384e-02,6.091201158262160575e-02,5.769346287276142654e-02,5.432733521019310341e-02,5.063954236160905786e-02,4.636632104312452679e-02,4.164898190564417929e-02,3.554599881079306689e-02,2.902269424166797201e-02,2.165592410072349899e-02,1.483896334494950661e-02,1.045745771914256134e-02,6.667882718978326503e-03,4.062667034554786824e-03,2.267268737440453989e-03,8.240849650520297096e-04,1.051324273236823757e-04,1.191232737483787297e-05,nan
nan,6.144712111533001458e-05,2.877555045507385360e-04,7.496560208768897554e-04,1.999406677527204492e-03,3.754823079671145997e-03,5.920407981190136879e-03,8.421980451239943766e-03,1.222596708883940883e-02,1.793246165718131307e-02,2.625997003543815295e-02,3.369125818570750663e-02,3.975055439464041801e-02,4.458920135429272208e-02,4.898345541183882212e-02,5.274135163879328791e-02,5.618922139784146563e-02,5.943777733557967236e-02,6.242529858683909527e-02,6.514485881540264811e-02,6.778377298541461704e-02,7.023016079513741405e-02,7.258005074725275285e-02,7.479501755924949924e-02,7.690138235415854007e-02,7.894062883778057982e-02,8.086608467971284631e-02,8.269381160751709814e-02,8.445691922845802169e-02,8.613421381887667594e-02,8.773956726699430608e-02,8.924274883270985614e-02,9.071239635216733765e-02,9.208580565211782476e-02,9.337649029678021795e-02,9.462544434607526866e-02,9.577520927254513927e-02,9.685872529818276289e-02,9.786057899042080455e-02,9.877467395740874290e-02,9.962853127695320277e-02,1.003896907134685379e-01,1.010672103351385603e-01,1.016681271138710485e-01,1.021872792000696056e-01,1.025972577923667528e-01,1.029609201644261646e-01,1.032050046330535709e-01,1.033605347578610556e-01,1.034293114986163109e-01,1.034231678361116347e-01,1.033206635035751747e-01,1.031049305990029280e-01,1.028244449680367489e-01,1.024475837968469721e-01,1.019740435030524611e-01,1.014433677178152998e-01,1.007856196473684435e-01,1.000796640409794408e-01,9.928843426911190817e-02,9.838269129444984773e-02,9.742428661968374759e-02,9.639526941533910209e-02,9.527133354861605508e-02,9.406752809709589824e-02,9.284216155095209588e-02,9.147048143913695528e-02,9.004490669219429588e-02,8.859849767150021482e-02,8.704380352781099228e-02,8.541289152053599398e-02,8.370021547788147886e-02,8.190645847373692612e-02,8.004385951501900853e-02,7.806257313535666653e-02,7.601080853789932146e-02,7.384400661087593687e-02,7.162833171008924082e-02,6.921838453423009851e-02,6.673912368443182808e-02,6.406159014918892669e-02,6.118556748424656966e-02,5.815533005610641626e-02,5.487486487546705538e-02,5.114222698198132855e-02,4.712619217375803998e-02,4.267343988199958499e-02,3.694182152568070698e-02,3.094851404690530244e-02,2.349342904124565243e-02,1.671181967627743264e-02,1.155799356238254062e-02,7.784447424084302292e-03,4.876081616656876595e-03,2.975590085120664603e-03,1.558970443701278210e-03,5.770187960386375650e-04,1.300567302498130146e-04,4.499690457331629377e-06,nan
nan,1.290995509583722972e-05,6.213722642685989199e-05,3.948376121731657709e-04,1.123500320191160411e-03,2.432589980708927888e-03,4.358678815109873206e-03,6.780562486917152826e-03,9.500683272857215339e-03,1.414488121395420309e-02,2.111399810673306870e-02,2.834569085180890097e-02,3.522693326736096864e-02,4.026380799461946186e-02,4.549354440104282082e-02,4.946309412139930639e-02,5.314058832002902660e-02,5.649911342211570014e-02,5.958493993388791488e-02,6.247477215281478646e-02,6.511051110877839887e-02,6.767687045618531183e-02,7.004525569513098127e-02,7.224985910679103396e-02,7.443896637391374249e-02,7.644273085264696732e-02,7.840054957554448700e-02,8.025657058421288570e-02,8.199898269384676974e-02,8.368669559190014540e-02,8.528466373962902136e-02,8.678441214107282531e-02,8.822026522539698490e-02,8.959135308247703766e-02,9.089181723631935272e-02,9.208960380244601840e-02,9.322664491809280751e-02,9.429851631948572843e-02,9.526776761867664090e-02,9.618201660177227996e-02,9.700449032066457700e-02,9.775647862245356867e-02,9.841671439984583936e-02,9.900237336161279988e-02,9.951510160712331854e-02,9.991943018151243361e-02,1.002450419404095211e-01,1.004998563895289493e-01,1.006566218914699828e-01,1.007170570972270585e-01,1.007052594386962097e-01,1.006011163874544478e-01,1.004029948713046627e-01,1.001343447264607806e-01,9.975922350612256850e-02,9.931280728883089270e-02,9.877187526204556089e-02,9.815179181808363074e-02,9.745697593672457415e-02,9.664767892674960836e-02,9.580708665151599357e-02,9.487143762236140143e-02,9.383967370662121832e-02,9.273060985632519682e-02,9.153781131160346196e-02,9.033469518072606563e-02,8.920827500396831533e-02,8.761757929193877970e-02,8.618104637337942187e-02,8.461693642167089635e-02,8.298970440851534403e-02,8.126353756772133896e-02,7.947387866523986100e-02,7.757164696059694331e-02,7.562445632332334688e-02,7.353521586500970375e-02,7.135879616400077341e-02,6.906039442204757461e-02,6.665806573687545200e-02,6.406209358817657740e-02,6.127114034777839807e-02,5.837783388089191894e-02,5.500810640478389496e-02,5.166421912985604686e-02,4.767859196296550528e-02,4.302730811907554825e-02,3.810162136462852400e-02,3.215882616153895729e-02,2.510498296069435184e-02,1.790981817255599129e-02,1.285957668130754787e-02,9.093041259933352244e-03,5.778454303523994709e-03,3.663177441556975111e-03,2.220672845926018827e-03,1.043394079565740720e-03,3.585168381277111893e-04,2.725327449091037325e-05,6.879419493045060488e-07,nan
nan,3.656313419467268918e-07,2.015430408842808696e-05,1.245320947235058738e-04,6.719407855381048268e-04,1.646015328758101276e-03,3.361509046245640502e-03,5.345006766610012686e-03,7.701084882123390360e-03,1.117544173109911651e-02,1.614705783224659047e-02,2.274454911067924287e-02,2.968961686207009093e-02,3.598037028374595492e-02,4.140581805802376336e-02,4.582895269961852203e-02,4.973387829307307495e-02,5.328660692545229838e-02,5.649059445253498679e-02,5.950844348957427810e-02,6.229551572541799920e-02,6.486328769122544358e-02,6.730677166711729331e-02,6.964169662345631728e-02,7.182689236263788135e-02,7.390770825026565793e-02,7.584406922031872167e-02,7.769566418660817098e-02,7.947920951927359146e-02,8.113494457157874318e-02,8.273513890786760028e-02,8.423701872568868654e-02,8.570014398061577554e-02,8.705807182985973725e-02,8.833227928993456213e-02,8.952753070323024587e-02,9.065137907420389718e-02,9.169346816507750741e-02,9.267433013136340547e-02,9.355778991262785060e-02,9.436292460402677384e-02,9.508531225330647818e-02,9.575672921423247774e-02,9.632492229544273310e-02,9.682053975787915934e-02,9.722309697311513899e-02,9.753231227348330146e-02,9.777133647109240155e-02,9.793321512668290429e-02,9.799770210544102300e-02,9.798129574865374614e-02,9.787823463474938646e-02,9.770091223606841568e-02,9.740165023497875108e-02,9.705041538336445228e-02,9.661858744705710544e-02,9.609203881988170881e-02,9.548252415438833463e-02,9.480928230272191171e-02,9.401616173721816239e-02,9.318817940094160923e-02,9.226337848209072157e-02,9.123635090661602609e-02,9.014419211514534958e-02,8.898593444535973784e-02,8.774357688640412045e-02,8.668157334538990899e-02,8.515598803109873660e-02,8.371181963678515914e-02,8.210920694327508707e-02,8.046678397206452615e-02,7.877327709168864545e-02,7.693787691493508829e-02,7.504549191321334412e-02,7.303765168853541823e-02,7.095214354269903378e-02,6.872725509077128037e-02,6.639238581775647186e-02,6.392488183204447783e-02,6.126196320963518682e-02,5.840917436001797497e-02,5.529778360518755598e-02,5.194251300858911125e-02,4.814061373981511072e-02,4.382335149611681080e-02,3.873057977565226573e-02,3.273977740267181025e-02,2.593453888544448513e-02,1.959708635304108215e-02,1.349767356784696559e-02,9.637052374675424485e-03,6.620267697808448169e-03,4.278505390961660770e-03,2.331198075796201384e-03,1.347068974743865794e-03,4.690029969506390606e-04,6.623373047975725009e-05,1.999064688166241512e-06,5.533105629232919025e-07,nan
nan,1.974167332888224436e-08,1.908741468719598226e-06,4.760259079244604776e-05,2.411766624941166499e-04,1.120957012762203303e-03,2.218842261859767327e-03,3.831344549846525064e-03,6.074157479796034667e-03,8.511459749558818524e-03,1.181057678272614403e-02,1.717437477725186623e-02,2.356279105522857825e-02,3.053656334891737684e-02,3.666839005212615965e-02,4.139386964642125660e-02,4.591956560960620826e-02,4.967050384071011737e-02,5.315124216272203855e-02,5.627514948497911590e-02,5.920839524694775785e-02,6.197686341983869168e-02,6.451620711102044881e-02,6.684458806306563250e-02,6.907928721049082232e-02,7.119619401364929434e-02,7.317614978746468657e-02,7.506757306362964177e-02,7.687134596377488693e-02,7.852872541703627418e-02,8.012483753818089305e-02,8.164486098046233598e-02,8.308115097320620257e-02,8.443719600205289166e-02,8.571356870828761298e-02,8.691365437820836037e-02,8.800864532138256979e-02,8.903029678388613144e-02,9.000510615801457504e-02,9.087933474501100339e-02,9.168570465632984445e-02,9.241295737906655983e-02,9.304660090104287240e-02,9.361254771122287655e-02,9.409271065499895392e-02,9.449031857339786067e-02,9.479531688667579281e-02,9.502737149231213487e-02,9.517835332108981472e-02,9.524909873555811868e-02,9.522504123695366141e-02,9.513615599676315815e-02,9.495223460810046923e-02,9.467938120182534112e-02,9.432780535364487795e-02,9.389659154708543398e-02,9.337263599776793321e-02,9.279547113169320238e-02,9.209089436283762753e-02,9.134944242425999117e-02,9.051117427597205056e-02,8.959274473479830747e-02,8.861017009681987355e-02,8.752273115837505557e-02,8.638338360391259463e-02,8.519216544140464920e-02,8.396835377868629158e-02,8.263943492376327193e-02,8.112657073743355374e-02,7.952502070315523031e-02,7.788686490217287817e-02,7.613498630549045409e-02,7.429139023537209563e-02,7.236752055249683069e-02,7.033332912494909273e-02,6.818135588147572479e-02,6.594304417594812340e-02,6.350213630702986056e-02,6.092288612176093715e-02,5.821082009709650784e-02,5.523013529557039419e-02,5.186358431461475516e-02,4.832988722417624894e-02,4.405039569206508493e-02,3.930031368324980040e-02,3.337726762330122526e-02,2.670697174162123960e-02,2.008314428103095267e-02,1.434789125886580183e-02,9.499383176104067225e-03,6.946928505423272462e-03,4.532668350690710092e-03,2.718031492966736101e-03,1.355173407410625083e-03,6.173142370783598655e-04,1.158668357758958566e-04,1.812563328831727757e-05,4.373361661579922904e-08,5.155085064464032529e-09,nan
nan,1.974608901779006413e-11,2.498518967194108830e-08,1.167535917486090182e-05,1.055292862952372313e-04,4.514581878618097264e-04,1.295243473343725069e-03,2.442989691027296160e-03,4.458232786674379625e-03,6.368106601916292964e-03,8.684241491405536584e-03,1.173370419750653822e-02,1.644258490065321487e-02,2.378118829619198932e-02,3.080834113900115731e-02,3.662261924262877333e-02,4.147019514764038739e-02,4.566638560028631055e-02,4.950333554284309934e-02,5.281768818029912438e-02,5.591884128305475710e-02,5.880627542269778463e-02,6.142368749669707695e-02,6.393147310239008507e-02,6.619030891453354937e-02,6.835849290819245860e-02,7.039610021977621424e-02,7.230739565579738515e-02,7.410924224839487984e-02,7.582678809252613172e-02,7.743621781028768580e-02,7.895331867633240130e-02,8.037029165688552856e-02,8.172996839888932441e-02,8.302047729454553604e-02,8.420236809131444178e-02,8.530407320515757952e-02,8.633805880427500301e-02,8.728569651806696028e-02,8.815347927387190419e-02,8.896057456331364632e-02,8.967091320694821344e-02,9.030670467632673226e-02,9.085573029630396313e-02,9.133431637649727652e-02,9.173435371355807832e-02,9.204754870293942182e-02,9.224956262757197378e-02,9.239709543290205995e-02,9.246877157301200412e-02,9.244730089028763143e-02,9.235972528606802012e-02,9.218414198732971521e-02,9.191643819585147701e-02,9.156226959313332192e-02,9.111390119756776484e-02,9.062448894735218585e-02,9.003774414192318443e-02,8.937797733272656586e-02,8.861335993609806283e-02,8.778442030313621247e-02,8.686418013381438930e-02,8.589517707913951750e-02,8.482337434596430581e-02,8.371064241026159036e-02,8.252072616297738417e-02,8.126397326223869233e-02,7.988180052062360259e-02,7.838968904974379093e-02,7.680445813443706471e-02,7.516182888696094910e-02,7.338249063436444453e-02,7.153951048662249290e-02,6.954830356211864906e-02,6.751763460340379219e-02,6.532800837165703145e-02,6.295843269547791998e-02,6.048013295403110307e-02,5.779248150930635375e-02,5.483988624293571063e-02,5.177445322162403663e-02,4.822125690930434416e-02,4.410174144692961817e-02,3.967637901793467925e-02,3.390374601139073407e-02,2.774775922263061217e-02,2.096828214272748736e-02,1.494006054495089150e-02,1.001040412966870338e-02,7.261144537505446160e-03,5.084251493959131979e-03,3.066447033907691248e-03,1.552487336546400087e-03,7.482255649617756445e-04,2.008470680053937797e-04,1.090708981000539855e-04,2.616015409838154260e-06,9.665010750005391703e-09,9.036949565151103079e-16,nan
nan,3.846735849491666265e-12,6.777921428764765050e-09,2.996580586925360113e-06,2.865135819550560572e-05,1.798457763730269669e-04,6.608911156035773143e-04,1.508109499143140981e-03,2.925336287647458539e-03,4.735539699439388767e-03,6.737099273327567042e-03,8.826977093962013257e-03,1.196156115988440856e-02,1.732618516638156914e-02,2.416135296641301264e-02,3.095632468914079338e-02,3.618809816921683686e-02,4.116624228746904035e-02,4.540556142569884129e-02,4.891139294481027661e-02,5.238846614210299069e-02,5.535291431763787739e-02,5.822645603786230639e-02,6.074267587079141412e-02,6.312507271488462801e-02,6.539337663977806692e-02,6.744174460671702176e-02,6.941905319518025530e-02,7.123649331036373267e-02,7.297877874734298720e-02,7.463761496306463294e-02,7.618012432679373280e-02,7.760520049486066552e-02,7.896118691938538992e-02,8.022825794470749006e-02,8.141992854420672387e-02,8.252873786334048722e-02,8.357090229403676962e-02,8.450856278694333923e-02,8.536653827608976786e-02,8.615543974081411871e-02,8.688125988967043689e-02,8.750850703815027387e-02,8.806227536593072558e-02,8.851285677520254191e-02,8.890578812476283843e-02,8.920286708508720630e-02,8.942907016219359129e-02,8.957376623673922456e-02,8.964307786626718455e-02,8.962743217233491710e-02,8.952902239081227120e-02,8.936397744385043973e-02,8.910226710730309585e-02,8.874836662658158737e-02,8.833777480241578051e-02,8.782849741403836452e-02,8.725620833880426419e-02,8.658307958029629048e-02,8.583552190021766226e-02,8.500719104379068913e-02,8.408374157361289680e-02,8.313318014110679388e-02,8.209290987631276404e-02,8.095274890628002817e-02,7.974400999229748488e-02,7.845808986753816106e-02,7.707796164810051809e-02,7.556385555422075184e-02,7.398838203079610709e-02,7.229291648366988066e-02,7.052740762349080095e-02,6.864559804892231276e-02,6.663865334067749224e-02,6.449142233071274155e-02,6.226694761683642526e-02,5.984127357345359749e-02,5.718847865907891737e-02,5.433135339315944834e-02,5.130184568290459268e-02,4.780167676785659209e-02,4.389583664705854621e-02,3.945654027223560734e-02,3.426603162104850664e-02,2.821882100935378321e-02,2.165927065998954348e-02,1.524053012699338149e-02,1.081631069256854330e-02,7.253708745719539275e-03,5.148115135843012169e-03,3.764131140353731662e-03,2.147099687741986593e-03,8.647138013445267862e-04,2.429607064720662500e-04,5.275112079704608921e-05,1.780641815959606493e-07,4.761453388474096965e-09,6.042251805420650207e-15,2.071238080403816355e-22,nan
