nan,2.848136514264339398e-25,1.185613570222328514e-16,3.053589661071712168e-11,2.027399575761515339e-06,8.358604895925434713e-06,2.863182960571924660e-04,1.266247398962045767e-03,3.465173633474137073e-03,7.521045509339456536e-03,1.372264548878854122e-02,2.406633719684322936e-02,3.736230039017209015e-02,4.922488039715581382e-02,5.639286144662847972e-02,6.149601263937097551e-02,6.608556923892358603e-02,7.035702223729939364e-02,7.411962809504077376e-02,7.809485655440800977e-02,8.241961378463140420e-02,8.742270020855424928e-02,9.320693534161647587e-02,9.794855727819745672e-02,1.024609794112412153e-01,1.060423943308495820e-01,1.095786223157354522e-01,1.132584788115596763e-01,1.165203839647132034e-01,1.199874268384494291e-01,1.233905191175181104e-01,1.267434230964078756e-01,1.305023875240246267e-01,1.348673024778867524e-01,1.394280921125408135e-01,1.434308616526470126e-01,1.483697417045571343e-01,1.536372983143639848e-01,1.588715111010158831e-01,1.639644546919453161e-01,1.696496708287652533e-01,1.765356863824201206e-01,1.843729491612231264e-01,1.926588983367357732e-01,2.006896471634061763e-01,2.099997221958215254e-01,2.173615923760445212e-01,2.237210553957468262e-01,2.279257550419164779e-01,2.297542367015570075e-01,2.296517651830118356e-01,2.268478195104585982e-01,2.228050232924027596e-01,2.169326147621349898e-01,2.104122130190410334e-01,2.018942573928330930e-01,1.907719034996797625e-01,1.812255066818141414e-01,1.711041571036600595e-01,1.657950700638074759e-01,1.612116828078063446e-01,1.572065090006211641e-01,1.519976868816097226e-01,1.467942948938857906e-01,1.424451664891155656e-01,1.382823426590541749e-01,1.339793229197921431e-01,1.299639586310981365e-01,1.260622091172543813e-01,1.223777763304017135e-01,1.190231030476213980e-01,1.149139152579450596e-01,1.108550884352412780e-01,1.069621005094535532e-01,1.033680715199146311e-01,9.904477225340180269e-02,9.510836621125226542e-02,9.161424134748176462e-02,8.822749262896772970e-02,8.418861329232202317e-02,7.870297540102595690e-02,7.313618221444390111e-02,6.753204206534804688e-02,6.132767570682508274e-02,5.437988740851376623e-02,4.745849266027968999e-02,3.701248743525958895e-02,2.468813164618327213e-02,1.497066454908117621e-02,9.264811477029795406e-03,5.395020644438310378e-03,2.461809808547632625e-03,8.571048108099800543e-04,1.931768637936475124e-04,1.047773015824881423e-05,1.159406524508122963e-07,1.059187929927212471e-09,9.174306396395427786e-28,0.000000000000000000e+00,nan
nan,3.029487711347294868e-34,5.151601995342946963e-23,7.419195652521979431e-10,9.233913012598695823e-09,4.270213372315749843e-05,2.259638672042275952e-04,1.148313102676020228e-03,3.346550761155373758e-03,6.859261524462689601e-03,1.313884149595603498e-02,2.433904107633705349e-02,3.769674390797692759e-02,4.751060389227999836e-02,5.483162473135586024e-02,6.068210697020012118e-02,6.554894838536770574e-02,7.010919705705689897e-02,7.429835511455372410e-02,7.852252317386841651e-02,8.306434727140629692e-02,8.791146954979409123e-02,9.289526556840323190e-02,9.732746633152639104e-02,1.016672989746757738e-01,1.053939304222969581e-01,1.090277139934077572e-01,1.126164211532840187e-01,1.161206573747482901e-01,1.195475598923321919e-01,1.230158627141986344e-01,1.264907520681790853e-01,1.302347327761182172e-01,1.347446214781478635e-01,1.386310905806515670e-01,1.429360166106696806e-01,1.476091673241425040e-01,1.524879980965483384e-01,1.575704619352316371e-01,1.625555751882151179e-01,1.680039455273038551e-01,1.741178121354314545e-01,1.809051121764387871e-01,1.881871364416914660e-01,1.949309200500532469e-01,2.020018292510009361e-01,2.088451380473989871e-01,2.133605078553843237e-01,2.165067892128780258e-01,2.180619634950511365e-01,2.177028549724972506e-01,2.158994964100177660e-01,2.125777873144463759e-01,2.080978904593373535e-01,2.020462808682885469e-01,1.948047704248893619e-01,1.868104508328984892e-01,1.784494809749389288e-01,1.706193818673880369e-01,1.650761581708403980e-01,1.599294266744036019e-01,1.554536891391631315e-01,1.507443104460911565e-01,1.461805266084887922e-01,1.417955508740864623e-01,1.376936723296357523e-01,1.335701849896405169e-01,1.294690672945496002e-01,1.256511819310958400e-01,1.220078510611386502e-01,1.184988030768064915e-01,1.144781806978779487e-01,1.106683535999970491e-01,1.067308013316783100e-01,1.028675894299153348e-01,9.881495380061461331e-02,9.488133488966889184e-02,9.130913701792214843e-02,8.752299066639743219e-02,8.352761778181352903e-02,7.858860358023064818e-02,7.326410023871909871e-02,6.778845887604065257e-02,6.178235635545772930e-02,5.495016421097714127e-02,4.749840349948434431e-02,3.781140334731788316e-02,2.597338191519682829e-02,1.562322290150922749e-02,1.015747603639858762e-02,5.868300320205825302e-03,3.029794283713075319e-03,7.843841338720285378e-04,1.182250038245378685e-04,1.905189123480558025e-06,2.427180162435981475e-07,3.877051513101813365e-13,3.285151046736322557e-25,1.021010722391403469e-37,nan
nan,4.043515333895299061e-35,2.099446952964478180e-23,3.392390957226202368e-16,5.158980720916216893e-09,1.064702260089735826e-05,1.834007345441166252e-04,1.167629108359905573e-03,3.073461405028896261e-03,6.319589557500596491e-03,1.313063804146909902e-02,2.374777687090255662e-02,3.637449921099970146e-02,4.619477791331867006e-02,5.370277025094886969e-02,5.968136762059512990e-02,6.494085432146984305e-02,6.969418086992179573e-02,7.413807777631112317e-02,7.858661533513074116e-02,8.314936661042396371e-02,8.780198387050677789e-02,9.240704160370079301e-02,9.680796112655547236e-02,1.008258181471763798e-01,1.046817931915789007e-01,1.083639304644938295e-01,1.119386617101787024e-01,1.154475052102132415e-01,1.189566361320441162e-01,1.224658284467898817e-01,1.260052899071394950e-01,1.298233603097092848e-01,1.337984302521886548e-01,1.379022882582924270e-01,1.420552781235507600e-01,1.464912791015477445e-01,1.510656126977823477e-01,1.558974610264322047e-01,1.608428819279244526e-01,1.657819081812974826e-01,1.713657127977201711e-01,1.772391321624105232e-01,1.831255511464685570e-01,1.892450846412061793e-01,1.948136337619834069e-01,2.000486539013470177e-01,2.037764159737530112e-01,2.065205655808938501e-01,2.077395645818100600e-01,2.076606390548572656e-01,2.059708358968173336e-01,2.036447565449013841e-01,1.993611675419857676e-01,1.948205666062087227e-01,1.884662912580734595e-01,1.823405375625170022e-01,1.750890977436700968e-01,1.689395281160912254e-01,1.634301483404843325e-01,1.584044916316681428e-01,1.538744113181862438e-01,1.495207305675081422e-01,1.450962912927806492e-01,1.408017661099256190e-01,1.367525002460447947e-01,1.327615873432342330e-01,1.288044058154050875e-01,1.250695672806431957e-01,1.213652390210111787e-01,1.177047510566888999e-01,1.139140503823288242e-01,1.101716010377050692e-01,1.063533282465322916e-01,1.024728759532722300e-01,9.852684227239404124e-02,9.468094729505195650e-02,9.079959873861179198e-02,8.696427051352888238e-02,8.278370402771537129e-02,7.802487801072546802e-02,7.298723749375579661e-02,6.763952293291956852e-02,6.161111399588938692e-02,5.486368493388360523e-02,4.744744790167566145e-02,3.784286649343351211e-02,2.646846819422482566e-02,1.541069639376591548e-02,9.317492596142628453e-03,5.643501893608062966e-03,3.014571087093595968e-03,8.335951740606304013e-04,8.530803202239899141e-05,4.530116606527653602e-06,6.849888317629215591e-07,2.478121244477050215e-13,6.633615467497849423e-25,2.410991842501175870e-37,nan
nan,0.000000000000000000e+00,4.101536066583532222e-35,8.298996318367656133e-13,5.013115392505660568e-12,6.820365205749691759e-06,2.314801827416413987e-04,9.906398977789728812e-04,3.039245209172733702e-03,6.356258093806830406e-03,1.213507587874717436e-02,2.254998635692655878e-02,3.523629094167200770e-02,4.494885230377940882e-02,5.254668986075633486e-02,5.874881241556970807e-02,6.425830688727909856e-02,6.917265403611488894e-02,7.384446307201170123e-02,7.841027926085228361e-02,8.296095129444581995e-02,8.744443137823652845e-02,9.178964251873140967e-02,9.605048224499945775e-02,1.000656587080615695e-01,1.038623653744694952e-01,1.075726854645691621e-01,1.111520276160812282e-01,1.146564451029515597e-01,1.181458148552901877e-01,1.216286998141635906e-01,1.252979680235754845e-01,1.289610376186343943e-01,1.327917960078140169e-01,1.367886251851374302e-01,1.407901693435558432e-01,1.450212589789505180e-01,1.493176927970331358e-01,1.536662055803191818e-01,1.585308112951338833e-01,1.633190282972772078e-01,1.681240464412907532e-01,1.733376784184256780e-01,1.785799581879660147e-01,1.835537330727747829e-01,1.881646390814561698e-01,1.921913923177477890e-01,1.956543235476324305e-01,1.976685802995052921e-01,1.986072442756391943e-01,1.988636354748898882e-01,1.973030855944433448e-01,1.950496425306449122e-01,1.915561860282151418e-01,1.874237180639362066e-01,1.825892977466301303e-01,1.771646129363006195e-01,1.713778093258740975e-01,1.661381159200992774e-01,1.610556907457834641e-01,1.564556081821654732e-01,1.521230185338160734e-01,1.477946514930154054e-01,1.436723485202490991e-01,1.395707898532899116e-01,1.356067793171226166e-01,1.317213991976506904e-01,1.278855123275737804e-01,1.241816228031334124e-01,1.205039535989629595e-01,1.168172197898660891e-01,1.131685133493688933e-01,1.094196920391927730e-01,1.056709956605564604e-01,1.018466098308388468e-01,9.800187940299898148e-02,9.416524052376798459e-02,9.028734632752885569e-02,8.627106963067224243e-02,8.205032119736732632e-02,7.735941605163373924e-02,7.249176402646105577e-02,6.713867633196242413e-02,6.135128576882949852e-02,5.480204923297075925e-02,4.720358272115006415e-02,3.748061214802804464e-02,2.611301113166007368e-02,1.490862545705956901e-02,8.770196896869489334e-03,5.384808251053622812e-03,2.563136245133109704e-03,7.335104135328679312e-04,8.147845648089444709e-05,2.084751150173588019e-05,1.935441645909782905e-08,4.969905968341899025e-17,3.603803964477515255e-19,2.662390004127594322e-31,nan
nan,0.000000000000000000e+00,7.015706226443569722e-34,2.253296093232872972e-17,2.032436442329960418e-08,1.089553976915676321e-06,6.672570955013669989e-05,1.240303666788678850e-03,2.991142645128829283e-03,6.107971956857722630e-03,1.193782277095580338e-02,2.063290580655217921e-02,3.332305300526321873e-02,4.339108270669289613e-02,5.134551285933397491e-02,5.779180971954622076e-02,6.330665612140909393e-02,6.849002964234937596e-02,7.327458645778209267e-02,7.792671792571838341e-02,8.242989789918342414e-02,8.682653068335810520e-02,9.106017290882260917e-02,9.524435294882035996e-02,9.912660806260673030e-02,1.029558777715451762e-01,1.066413108859628339e-01,1.102052204479670588e-01,1.136829136357916797e-01,1.171816724630914131e-01,1.206511267778058449e-01,1.242449353872641798e-01,1.278613262797279049e-01,1.316394662392880166e-01,1.353853108399531990e-01,1.393165501103100778e-01,1.432902028795630944e-01,1.474362690583044810e-01,1.515960631793151492e-01,1.558895137049005064e-01,1.603193811909440769e-01,1.646841216679631181e-01,1.692263417586693519e-01,1.736529684585821076e-01,1.777887650862355895e-01,1.816476268891047963e-01,1.851686277953766280e-01,1.878146908147656502e-01,1.898098124176393342e-01,1.906788739302910929e-01,1.905783792760422091e-01,1.893487170910163886e-01,1.873664209065634689e-01,1.848230204563734436e-01,1.810198147639609512e-01,1.771158372724201402e-01,1.725507215550370343e-01,1.678400763668718987e-01,1.632027832637716058e-01,1.585119390162829378e-01,1.541544401013293375e-01,1.500857700178169218e-01,1.460097432556888286e-01,1.420159200181880521e-01,1.380506762096606610e-01,1.342440153362537969e-01,1.304548694682647891e-01,1.267921877666148833e-01,1.230982316210522537e-01,1.195103118499376837e-01,1.158776896394717176e-01,1.122754271115053853e-01,1.086174074210651541e-01,1.048557329502209368e-01,1.011254395480891133e-01,9.731321022878111626e-02,9.347835346512028964e-02,8.955771214984553641e-02,8.549769667027616593e-02,8.123504004956741409e-02,7.667332599151427397e-02,7.181150983057495163e-02,6.657663781043142437e-02,6.071981454897611152e-02,5.419278563579087854e-02,4.661118473435408444e-02,3.715672294319041780e-02,2.581330761950145075e-02,1.504831116634224031e-02,9.094962010464648083e-03,5.291759630651263896e-03,2.507154448915190764e-03,7.539676791611095398e-04,1.012527661264610442e-04,8.364902636050357783e-06,7.436147208035832493e-08,5.212138028750456046e-15,8.697197228666088879e-22,3.660807153498079749e-32,nan
nan,0.000000000000000000e+00,7.408595576064094996e-34,4.415856337237593704e-16,9.344664140691417553e-07,6.696161636430654109e-06,2.136008498350849144e-04,9.740080052169346886e-04,2.861589684153618626e-03,5.806676598469974297e-03,1.010505269784018473e-02,1.977516577924431224e-02,3.110587596711916758e-02,4.186167055651991709e-02,5.005723194387678987e-02,5.663598825319218072e-02,6.241719429517709333e-02,6.765594117463416546e-02,7.256989842145362968e-02,7.715381910945753874e-02,8.169935936257768927e-02,8.606060799583296894e-02,9.026515489973693795e-02,9.425759396909604015e-02,9.814939189785695794e-02,1.019277639927359813e-01,1.055764541193668637e-01,1.091254784601945055e-01,1.126202198176672886e-01,1.160740158929600002e-01,1.195576617029361077e-01,1.230341788673207509e-01,1.265591448838863653e-01,1.301833766140465531e-01,1.338386857740251623e-01,1.375781357973637486e-01,1.413816373781437152e-01,1.452808864488953633e-01,1.491549198589222081e-01,1.532261208060828606e-01,1.571322404534138406e-01,1.611620833386837315e-01,1.652214592909871382e-01,1.689158977280330876e-01,1.726708565612820601e-01,1.760583382445006229e-01,1.787690120923445258e-01,1.811173873653129374e-01,1.823064678348962353e-01,1.829862026197909275e-01,1.831993707514708025e-01,1.825077772826560751e-01,1.805792732015486790e-01,1.779622238519202870e-01,1.751697676811747040e-01,1.718772128849513359e-01,1.677757984010121439e-01,1.639314247890864273e-01,1.597569570525576299e-01,1.555677734451997862e-01,1.515784120141106528e-01,1.477580022861593456e-01,1.439453656709943075e-01,1.400737161206958570e-01,1.363839112188873770e-01,1.326623195912906283e-01,1.290432537597259177e-01,1.254468815099100132e-01,1.219067778820179110e-01,1.183027193942636363e-01,1.147845177216034601e-01,1.112050646901997092e-01,1.075979288661284838e-01,1.039329327917840329e-01,1.001827929222926378e-01,9.644338957575601667e-02,9.261065002958081271e-02,8.868892192257527007e-02,8.462967419607440867e-02,8.035125233767134723e-02,7.579040977284423608e-02,7.096034782318683121e-02,6.572396746475568652e-02,5.990639516464239811e-02,5.326346139172898064e-02,4.568568333382789365e-02,3.594957177322451874e-02,2.489574016252141253e-02,1.586992356148096694e-02,8.190916753264897848e-03,4.895386817893285052e-03,2.393412166877273862e-03,1.119067463330576228e-03,6.113113390077693551e-05,2.631318627018275188e-06,2.637094144678556784e-10,6.705868623851610332e-18,1.652187256477552218e-21,4.146056333102460056e-32,nan
nan,0.000000000000000000e+00,1.303326793874253757e-23,3.878705134282483240e-16,6.379173838377600465e-11,2.150360563161740489e-06,1.598924707987363337e-04,9.995885413622818648e-04,2.572451316734185225e-03,5.306673196335830872e-03,9.572847202792018201e-03,1.838455746531289514e-02,2.869358392014259920e-02,4.028068659612608904e-02,4.836693505986301711e-02,5.538686826884997583e-02,6.123773923025022103e-02,6.664963955782306215e-02,7.161979574879499821e-02,7.629921091199125260e-02,8.079253713546710736e-02,8.508504913776132605e-02,8.923703339471397711e-02,9.322000272743112548e-02,9.705451555306240929e-02,1.007883917552568342e-01,1.043861942146246669e-01,1.079005710575356158e-01,1.113665279244362705e-01,1.148065276712619820e-01,1.181750502893112731e-01,1.216314621434280846e-01,1.250969677496105437e-01,1.285778485543901117e-01,1.321413044825574534e-01,1.356899344720101375e-01,1.393024713632410316e-01,1.429192467605411854e-01,1.466272859424139763e-01,1.502274436506042532e-01,1.539892640100552212e-01,1.574830130365195702e-01,1.610942011264445417e-01,1.644325070453654947e-01,1.676654704551553687e-01,1.704197901802254611e-01,1.726289018598298475e-01,1.747395433704168055e-01,1.759041750116484837e-01,1.765369547910674020e-01,1.766525265085924223e-01,1.758059819786727540e-01,1.742331270152171763e-01,1.723571626865937345e-01,1.698941380959808067e-01,1.668768904113457907e-01,1.634329774901659149e-01,1.600065789206844002e-01,1.561500536981628440e-01,1.525702326561793332e-01,1.489196907975056383e-01,1.453227606358208357e-01,1.416609756734927283e-01,1.381038885689652995e-01,1.344902655301711270e-01,1.309779406647306743e-01,1.274786586661462162e-01,1.239615864398936201e-01,1.204804817702856412e-01,1.170246942313119820e-01,1.135148404167121705e-01,1.099915119921745649e-01,1.064206598201519194e-01,1.028174907265406307e-01,9.914916649015440009e-02,9.537532628728571937e-02,9.160922916886898859e-02,8.768071126694643169e-02,8.359118603538037706e-02,7.935723170080076494e-02,7.483147643635394697e-02,6.988458797036185832e-02,6.463457222354637710e-02,5.883211139993043542e-02,5.224418411104839177e-02,4.444369760725343926e-02,3.441593922309484771e-02,2.336660559802654011e-02,1.327081585732284297e-02,7.510833897834539100e-03,4.423126660191381912e-03,2.115191634842006861e-03,5.969116845644975274e-04,1.158325943548761184e-04,9.422391149371072390e-07,1.915801069584444262e-09,1.052144404159803164e-12,2.114845742982790647e-26,3.714574451115319637e-39,nan
nan,2.783145514066844270e-32,9.475874826238944388e-22,4.201546575051956383e-15,2.864639744989489270e-10,3.227669435283006954e-07,9.483956921248025548e-05,7.742260917917183610e-04,2.020240230202531920e-03,4.698130062190893075e-03,9.046130841550347954e-03,1.517373959852759933e-02,2.664845087087029663e-02,3.760784627917644618e-02,4.670668574295314818e-02,5.357199419224838166e-02,5.990165700963815537e-02,6.545896077515049594e-02,7.046715798173532053e-02,7.518596655707741883e-02,7.965228314037402224e-02,8.398105621409199251e-02,8.806348023226437394e-02,9.199113129464087102e-02,9.580195503981896177e-02,9.946580448402765617e-02,1.030627503677117168e-01,1.065521265512465038e-01,1.099606907241778703e-01,1.133638691570569568e-01,1.167348377294420980e-01,1.200820937549225143e-01,1.234427294780288537e-01,1.268399935401997025e-01,1.302044435941254741e-01,1.335890902244642464e-01,1.370583533252561770e-01,1.404479653395688532e-01,1.438126655699627499e-01,1.472199406494002216e-01,1.506098657028255572e-01,1.538966902171493567e-01,1.571277863464112801e-01,1.601877171382234954e-01,1.627620472602936130e-01,1.652229519181215300e-01,1.671859956476928755e-01,1.688125023093389188e-01,1.699217324557968922e-01,1.704407406592782226e-01,1.703633630011434641e-01,1.698612912117913876e-01,1.685123657216966719e-01,1.667663160069813300e-01,1.646843651049955115e-01,1.621224317122421654e-01,1.591903265308167170e-01,1.560794750738000169e-01,1.527991103486117663e-01,1.495035325857870800e-01,1.461213986156946198e-01,1.427248180964245661e-01,1.392900069507070626e-01,1.359056467162519377e-01,1.324638980754008211e-01,1.291040073520663412e-01,1.257085234665421547e-01,1.223554187765037299e-01,1.189544098143208439e-01,1.155499393066071745e-01,1.121289603754707376e-01,1.086512412143825212e-01,1.051274942470581952e-01,1.015623090941894097e-01,9.795868711166080822e-02,9.426034358845712668e-02,9.045468898865996477e-02,8.647631115825649140e-02,8.242556596461880769e-02,7.813550762015722406e-02,7.358338423069649137e-02,6.872016166994923680e-02,6.344360317606401178e-02,5.742905774758691462e-02,5.034165054327147115e-02,4.226897755864237466e-02,3.242329240453489803e-02,2.070127870504592446e-02,1.225455660116235926e-02,6.426129869624752460e-03,3.751502503877448321e-03,1.656840782873346147e-03,6.208367060407725489e-04,3.634502862017666841e-05,4.155106736629254119e-06,2.868981772279656806e-09,4.494987133989816134e-13,1.105974959570289083e-18,0.000000000000000000e+00,nan
nan,2.276191781837127218e-32,2.014399737586594519e-21,9.542025378508336018e-15,1.593083425684940185e-10,2.537118711802512822e-07,6.070363266005581148e-05,5.490207948112468730e-04,1.675768525608842480e-03,4.294335441373212103e-03,8.548233665246950108e-03,1.393681128296670596e-02,2.370659733053389132e-02,3.506585717070481029e-02,4.427078344806237298e-02,5.203943471778837981e-02,5.822958899944389449e-02,6.398237990156967203e-02,6.913140893259543673e-02,7.386904043078304505e-02,7.839849184854280617e-02,8.265252555140500945e-02,8.676192883659376853e-02,9.066755449798111210e-02,9.441203700271647015e-02,9.806652919396677270e-02,1.016153120680290123e-01,1.050867545137783299e-01,1.084712378923157194e-01,1.117940495072194118e-01,1.150915956992857314e-01,1.183832225290115392e-01,1.216659782081738334e-01,1.249074437486259459e-01,1.281725938168608581e-01,1.314016729692824847e-01,1.346337769292510200e-01,1.378720367954880954e-01,1.410589194629003895e-01,1.441988729934163549e-01,1.473188624864202045e-01,1.502727122419773576e-01,1.531149877942573623e-01,1.557807451509957419e-01,1.581111777944833596e-01,1.603719985328365405e-01,1.620784603445389327e-01,1.634786123770798905e-01,1.642998965137919543e-01,1.646228342360636088e-01,1.647288956204795707e-01,1.642217308511827456e-01,1.630439405388559304e-01,1.616092782877400214e-01,1.597641810394640760e-01,1.575284583744497591e-01,1.549337527401797310e-01,1.522189607048718696e-01,1.492818095692413083e-01,1.462015643790710862e-01,1.431436482259376697e-01,1.399242824641127592e-01,1.368026055327676849e-01,1.335741318240616093e-01,1.303736887780449494e-01,1.270954225385896030e-01,1.238267849055193770e-01,1.205507203311265985e-01,1.172613068857370489e-01,1.139384957358517553e-01,1.105802962953845864e-01,1.071723945480924645e-01,1.036988694232699459e-01,1.002067108229126313e-01,9.660273938180051478e-02,9.293371204937969643e-02,8.909419766462008117e-02,8.518643773660922180e-02,8.113398590727073645e-02,7.680644739810012223e-02,7.221185821736149368e-02,6.731010459423956982e-02,6.189767516188558749e-02,5.583377142696654277e-02,4.885866634999545127e-02,4.047476507252244227e-02,2.971833731695110517e-02,1.827631688241479133e-02,9.944410588331635895e-03,5.983384677139097843e-03,2.955877689665890786e-03,1.120810819772827174e-03,2.657533836864660911e-04,2.936361036099542534e-05,1.097167681896582074e-06,2.322829402801973147e-09,1.269254847271381617e-12,9.256381006722337155e-27,3.810442573687831030e-27,nan
nan,2.467752897490262178e-33,4.480652447712022255e-23,4.315115266662830298e-15,4.699443365248975630e-09,4.255504701558741329e-07,3.754685361620649722e-05,5.215641074158607884e-04,1.575094076749455072e-03,3.641379022630094990e-03,6.795225601617022049e-03,1.319623940390072560e-02,2.096007067347382957e-02,3.189557598705766717e-02,4.179703624328187650e-02,4.961988835029430833e-02,5.654979479545568788e-02,6.233903217946137887e-02,6.757653737128418991e-02,7.242219248800224607e-02,7.690634102521044790e-02,8.121550885657276286e-02,8.527109815701314210e-02,8.921322336275840093e-02,9.293279066197535077e-02,9.654777737318123720e-02,1.000724189761344335e-01,1.034975640316812551e-01,1.068483153622711429e-01,1.101153022661341685e-01,1.133269129885933202e-01,1.165349646501760150e-01,1.197212883220317853e-01,1.228001529604377390e-01,1.260128725725667975e-01,1.290934690083514746e-01,1.321820333018701721e-01,1.351966422821987979e-01,1.382204772320195230e-01,1.410812016957377901e-01,1.438856966850856622e-01,1.466577783456099182e-01,1.492499570086066041e-01,1.515801468206283420e-01,1.537093150548618503e-01,1.556557143964207857e-01,1.570889734609246247e-01,1.583341182763852717e-01,1.590195515112254598e-01,1.595278585106866820e-01,1.594479980526283258e-01,1.588460966832797305e-01,1.580035080400021275e-01,1.567818803417344031e-01,1.551117957440108774e-01,1.530631478735312578e-01,1.508725074514221942e-01,1.483733881395264409e-01,1.458068615400086032e-01,1.429886355560282540e-01,1.401436995700905130e-01,1.371615625300682539e-01,1.342020437972557267e-01,1.311178555376601718e-01,1.279592781854229644e-01,1.249420878992944794e-01,1.218154014054708550e-01,1.186350955955128017e-01,1.154384963851492751e-01,1.121339778269053178e-01,1.088888492631459315e-01,1.055293918208297932e-01,1.021290794751158748e-01,9.866075398978216282e-02,9.510999791086158228e-02,9.143601041800591966e-02,8.765220452359770431e-02,8.372466039805580296e-02,7.965232656707640913e-02,7.532961365772762596e-02,7.063607579698803762e-02,6.570260199140628976e-02,6.025532054529967457e-02,5.389363704812161898e-02,4.684871748469206232e-02,3.789285249623448176e-02,2.704835603901058899e-02,1.612759544064632997e-02,8.145750205053830031e-03,4.829482700166423496e-03,2.280125164629673209e-03,7.858660861515095108e-04,1.129133003487863365e-04,3.613442107312493704e-06,2.040116976929925744e-08,5.151290421879533637e-12,1.448073187245318911e-24,5.003143088846879422e-25,0.000000000000000000e+00,nan
nan,0.000000000000000000e+00,8.810680908969005154e-27,3.943993124757174566e-18,1.022709339612754604e-09,3.217789907714804695e-07,8.553999437538165919e-05,3.094412357603587528e-04,1.272017449077778289e-03,2.888003204653523392e-03,5.862519224334375792e-03,1.062277640287512259e-02,1.766465474394955312e-02,2.822100476158644067e-02,3.894911459195066900e-02,4.734118454669926368e-02,5.428562950930043707e-02,6.046653827924181046e-02,6.583276979181473809e-02,7.075300839619808047e-02,7.532729221576041356e-02,7.961423635190617576e-02,8.365193202622259183e-02,8.755819479040058417e-02,9.127192281541138263e-02,9.487841215220063629e-02,9.837408838564261349e-02,1.017364395370166374e-01,1.050515708661340641e-01,1.082807720701813303e-01,1.114493286927917409e-01,1.145392697082059097e-01,1.176512367009164145e-01,1.206878341017888628e-01,1.236973558580667931e-01,1.266939184028931797e-01,1.296183804354806290e-01,1.324460046288024051e-01,1.352602386914932842e-01,1.379920088313255355e-01,1.404989688801126235e-01,1.431193444192743469e-01,1.453716798298500534e-01,1.474994036813272180e-01,1.494611621179411376e-01,1.510393810992163854e-01,1.524408126157591192e-01,1.534769875296161379e-01,1.541865006393982884e-01,1.545307596098024761e-01,1.545048931890101174e-01,1.540156184539123174e-01,1.531739404856044540e-01,1.521364153917350859e-01,1.506261502682308961e-01,1.488607911646662729e-01,1.468690860499927975e-01,1.446738994668862466e-01,1.422469041351013541e-01,1.397071953307774395e-01,1.370697354023872883e-01,1.342574446448300263e-01,1.314657340045880807e-01,1.285418051775701620e-01,1.256720795456612583e-01,1.226991958476783273e-01,1.196610426347090028e-01,1.166076280313428915e-01,1.134709213700524494e-01,1.102971796323237996e-01,1.070726176722329448e-01,1.037888297214505373e-01,1.004257325272378681e-01,9.698862726142847002e-02,9.347704458992227294e-02,8.982794427848846130e-02,8.606062895668183110e-02,8.210050665541129833e-02,7.798814827357636315e-02,7.364208491475403295e-02,6.896991663518928228e-02,6.375880627614134710e-02,5.819822947954891856e-02,5.157821053771140946e-02,4.395203903212778485e-02,3.478222793939690638e-02,2.330216344224390196e-02,1.227021711265225551e-02,7.788848263778218144e-03,4.014677774701364173e-03,1.556910103610766993e-03,4.712614447289330418e-04,4.737561992002702066e-05,2.306316533030970904e-06,1.251519758250867040e-08,4.579149835752202342e-12,2.567873097160016139e-20,8.481704332817940285e-38,0.000000000000000000e+00,nan
nan,0.000000000000000000e+00,1.023140958769293452e-26,2.485854028150890941e-18,2.415031168894856903e-12,1.343249052595535858e-07,1.375114821977235010e-05,1.583782629602325620e-04,7.612035250351238940e-04,2.338664627934776939e-03,4.886751125451488549e-03,9.159380779702975747e-03,1.500010250921735878e-02,2.428748307765579012e-02,3.524293877937426100e-02,4.458340350115158612e-02,5.160198950117782235e-02,5.828414018517083517e-02,6.376237496013445472e-02,6.886398292705522839e-02,7.350763688787748107e-02,7.781339443547882762e-02,8.191167797710985354e-02,8.577583413518152788e-02,8.951013286690064075e-02,9.307332060112452621e-02,9.653759643373219235e-02,9.988734882035504858e-02,1.031545754908192586e-01,1.063410647164504258e-01,1.094487157802314647e-01,1.125057631269916203e-01,1.154427988128747251e-01,1.184346851197585759e-01,1.213145348325276596e-01,1.241706096471927590e-01,1.269505176497247589e-01,1.296111187072237492e-01,1.323152123316221063e-01,1.348064262217182063e-01,1.372220845609934126e-01,1.394828162462510845e-01,1.416170388610214492e-01,1.436249914636399116e-01,1.453291788062512635e-01,1.468075050570382123e-01,1.479616812425685879e-01,1.488741337621565519e-01,1.494843688197599885e-01,1.497817074018356343e-01,1.497680123825640974e-01,1.494447537367545598e-01,1.486682150663045376e-01,1.476433186861062785e-01,1.463820053642307384e-01,1.447490296936041199e-01,1.429602129972531444e-01,1.409409701200658172e-01,1.387602523255541120e-01,1.363834654684220604e-01,1.339786549207276356e-01,1.313817390684119957e-01,1.287311737859158089e-01,1.259958451525108325e-01,1.231775676695135574e-01,1.203024808480010754e-01,1.174045844440134434e-01,1.144215559591000020e-01,1.114039310809327304e-01,1.082705164504218776e-01,1.051388477790368703e-01,1.019087411774461938e-01,9.860050696575439755e-02,9.518893188525327786e-02,9.169053098115684253e-02,8.806695133680886300e-02,8.429420559254192924e-02,8.038194628130716779e-02,7.613904540062632620e-02,7.173266406527370465e-02,6.697822888235353822e-02,6.183311274264371993e-02,5.597995110320000411e-02,4.930921786589162470e-02,4.118726316664437365e-02,3.126477027280852306e-02,2.007267122239838122e-02,1.042901683674037246e-02,6.730396516663745242e-03,3.362532696823174357e-03,1.051333345007765411e-03,2.772061720875603494e-04,3.328355604216947489e-05,2.404913051529423606e-06,2.430811768152175323e-09,1.886633968267744896e-13,1.520508385872492396e-19,4.616444952756635723e-38,0.000000000000000000e+00,nan
nan,0.000000000000000000e+00,3.427775297944318664e-30,3.222944537244011755e-18,6.210459178737946493e-11,6.535600747743242885e-08,8.062466002840589158e-06,7.859577597550369019e-05,5.988038269255104538e-04,1.768987618515431223e-03,4.373651612832601607e-03,7.431750166879375757e-03,1.258880486171737312e-02,2.145754382392918089e-02,3.094295275687698743e-02,4.109525592889803208e-02,4.887019268140081751e-02,5.571322056416823376e-02,6.161734171732310972e-02,6.682261052264251711e-02,7.151815096025754270e-02,7.590641712193627044e-02,7.996977293945807530e-02,8.387608921669556516e-02,8.760607582883514488e-02,9.118462664281958008e-02,9.460076904378589280e-02,9.791990304660457001e-02,1.011338520471338071e-01,1.042790964742368182e-01,1.072932089653397258e-01,1.103074742996752733e-01,1.132028161745814998e-01,1.160266236644220267e-01,1.188136637824598885e-01,1.215568704976024428e-01,1.242030568696303461e-01,1.267611748416047346e-01,1.292640970218511265e-01,1.316385564403008412e-01,1.339046839842748526e-01,1.360123350720242041e-01,1.379713742330984094e-01,1.397483006928920968e-01,1.413847969337563015e-01,1.426689019807689252e-01,1.436899078012061071e-01,1.445767514395245590e-01,1.451343121856559226e-01,1.453384780812347898e-01,1.453384039409898465e-01,1.449837885222430012e-01,1.442590243500476155e-01,1.434418136428153301e-01,1.422303439447830109e-01,1.407083960487259811e-01,1.391354541961125901e-01,1.372181993607872741e-01,1.352966914454702685e-01,1.331133430341523982e-01,1.308138308354001023e-01,1.283823015101379639e-01,1.259219001507487778e-01,1.233127429721287277e-01,1.205952415054441368e-01,1.178889844883676402e-01,1.150626548932945914e-01,1.121712821199115639e-01,1.091816968470026572e-01,1.061817772055926451e-01,1.030834676260019844e-01,9.988186403003755653e-02,9.663418042659277507e-02,9.325888145154243025e-02,8.979672378269722144e-02,8.615475717303025527e-02,8.239330407220618602e-02,7.843064333412909372e-02,7.422139309796370321e-02,6.966740075737816451e-02,6.483676057591808428e-02,5.941125598040268574e-02,5.336478353793649987e-02,4.630664742394903499e-02,3.758014126811837913e-02,2.728167873934458920e-02,1.498269812937677234e-02,8.068690024756635867e-03,5.171534114717401577e-03,2.543838415635016510e-03,8.219216428840951140e-04,2.014407630793970023e-04,2.023296157809224892e-05,4.559820745671371469e-07,6.644845622925534126e-10,1.162522208746704437e-16,9.814517651583789958e-25,1.981935510708187463e-29,0.000000000000000000e+00,nan
nan,0.000000000000000000e+00,9.479729204432174691e-30,3.349214078048278774e-20,1.493740518376960066e-10,1.513217555207551650e-09,6.447691876198097160e-06,6.568721713680024930e-05,4.917968370826398226e-04,1.322860282689739160e-03,3.608015775089156926e-03,6.158629989351814549e-03,1.028744804345453102e-02,1.699186791340691338e-02,2.608348077254733083e-02,3.690049391140755308e-02,4.545283057374807645e-02,5.305663964491064144e-02,5.916404098135780165e-02,6.456395512660900726e-02,6.933804780113075883e-02,7.377833991026752636e-02,7.794798651757417485e-02,8.179705975310366806e-02,8.552047445718016783e-02,8.913283717035540288e-02,9.252820053412298684e-02,9.582284006877583860e-02,9.900702645669601232e-02,1.020771639333072356e-01,1.050790414319729138e-01,1.079994410065157479e-01,1.108418317007500709e-01,1.135892014791962668e-01,1.162784836011534484e-01,1.188987948904027675e-01,1.214377267248467340e-01,1.238571995243528401e-01,1.262077685897410873e-01,1.284586249026358484e-01,1.305575202045203831e-01,1.324980802962666682e-01,1.343616171129405901e-01,1.359666682072892541e-01,1.374438408825598978e-01,1.386696640350247034e-01,1.396659255589756399e-01,1.403838626232122855e-01,1.408437445063691063e-01,1.411337026632954184e-01,1.410343990421992211e-01,1.407505295661722888e-01,1.401546409231163859e-01,1.393208314712934548e-01,1.382308771857335417e-01,1.369729666006127000e-01,1.353843206621777595e-01,1.337159061425731432e-01,1.319143027339776397e-01,1.298335633945249812e-01,1.276998761773211477e-01,1.253774058493182797e-01,1.230276518934005359e-01,1.205434405365852640e-01,1.180061490725768519e-01,1.153570480289129591e-01,1.126258120274747088e-01,1.098130773979109770e-01,1.069149401822581114e-01,1.039681544178952532e-01,1.009100354209691991e-01,9.777026032117722143e-02,9.454098372887453916e-02,9.120941969385576442e-02,8.774026716896901612e-02,8.412071703322243632e-02,8.030331824209148428e-02,7.630539488579839158e-02,7.205422764776725497e-02,6.742016900313346772e-02,6.242418026310668500e-02,5.684151621430738599e-02,5.053338994312925325e-02,4.289621341381955055e-02,3.341386723041216839e-02,2.281559670412691351e-02,1.263944759480222640e-02,7.245692137810570005e-03,4.100399411183161535e-03,1.964841259324862522e-03,3.999890906144613640e-04,1.918376694143476163e-04,1.361523087131805787e-05,2.808360566112243801e-07,3.286768127025438143e-16,8.514372240257673512e-17,2.270941757851666359e-25,0.000000000000000000e+00,0.000000000000000000e+00,nan
nan,0.000000000000000000e+00,0.000000000000000000e+00,4.082889140041276596e-20,5.754947201425086569e-14,7.844593603825097607e-10,4.398136666647784855e-07,2.222617296450203186e-05,2.848637385242933692e-04,7.043106520273204659e-04,2.465239358270213121e-03,4.958872244160414562e-03,8.263715518743592822e-03,1.282888761965219823e-02,2.148430588985551781e-02,3.239075788106614978e-02,4.237143169081877131e-02,5.023638265867996777e-02,5.644626160103633633e-02,6.201972367159542393e-02,6.697180722518297769e-02,7.144953202155317207e-02,7.565553482269191110e-02,7.957516222003212236e-02,8.335212758818580370e-02,8.691324414209956883e-02,9.032486319559418497e-02,9.358945086811389091e-02,9.674924900445852627e-02,9.976886256596673164e-02,1.027359849957048682e-01,1.055968850519990593e-01,1.083382404995337223e-01,1.110147362942366794e-01,1.136386528836442061e-01,1.161104411777251488e-01,1.185716296081532339e-01,1.209048085241781201e-01,1.231287301483215968e-01,1.252497471125084971e-01,1.272524952393922493e-01,1.290665594497307500e-01,1.307342303193324007e-01,1.322587177626273203e-01,1.336178185340540781e-01,1.347121524371701629e-01,1.356412436302402158e-01,1.363710744625111770e-01,1.367895162335828474e-01,1.369835458869335665e-01,1.369278600545924818e-01,1.366879270770365584e-01,1.361268912079797166e-01,1.353819327583455356e-01,1.343935521235118113e-01,1.331528255408696848e-01,1.317286777346255155e-01,1.301890204311052235e-01,1.284479491861911238e-01,1.265521538604598706e-01,1.244848252229757424e-01,1.223602915057316332e-01,1.201001375016552131e-01,1.177387028769322219e-01,1.152935942830340815e-01,1.126967409859329361e-01,1.100740728091758741e-01,1.073075694255988116e-01,1.045244500156247425e-01,1.016242999845528294e-01,9.862753076594334145e-02,9.553626491148252409e-02,9.231969943512868815e-02,8.901062974839317465e-02,8.550325168405421838e-02,8.186640934297576000e-02,7.810266763559112202e-02,7.400346637508886660e-02,6.962888688741841747e-02,6.492471419219106310e-02,5.977395192352042558e-02,5.402702208521319854e-02,4.709719474316443472e-02,3.884795798065718980e-02,2.893738361159373107e-02,1.745848635528686119e-02,1.001893304117583774e-02,6.510688860470801968e-03,3.651375598262393291e-03,1.311590673073962949e-03,4.347931850430363909e-04,2.844703670765037475e-05,9.379945991769136876e-07,1.714686599362690996e-11,1.129256807892173537e-16,6.333624190066116650e-25,4.074017048788778312e-36,0.000000000000000000e+00,0.000000000000000000e+00,nan
nan,0.000000000000000000e+00,0.000000000000000000e+00,3.907397815748218357e-30,5.580927828623806735e-14,8.232365339015947285e-14,7.682772619847561222e-08,1.020482223151474613e-05,6.945021562330818364e-05,4.202149595375800060e-04,1.714599491917740944e-03,3.546432865032524313e-03,6.536494941879812323e-03,1.094204197972434116e-02,1.742921878391281987e-02,2.748269388539609920e-02,3.821465520540908573e-02,4.636568845977434572e-02,5.333654866238363157e-02,5.924831078438597132e-02,6.428763161050252140e-02,6.887336123742615612e-02,7.315121101234831058e-02,7.718946631797186930e-02,8.094316476652041459e-02,8.456620626903699200e-02,8.796214392139907468e-02,9.122611533177783782e-02,9.436734124279162750e-02,9.735705460033290681e-02,1.002664950787508641e-01,1.030803931160451103e-01,1.057848804051610137e-01,1.083817365184733816e-01,1.109144011124686829e-01,1.133298795555950644e-01,1.156589427506627688e-01,1.178883027161563013e-01,1.200232052684205297e-01,1.220109974814684722e-01,1.238872487628530916e-01,1.256564737937446719e-01,1.271920987646364409e-01,1.286215731789372985e-01,1.298258078459735565e-01,1.308621682335236736e-01,1.317465929586615070e-01,1.323931290108614489e-01,1.327961001118386219e-01,1.329955118408734926e-01,1.329410426284732549e-01,1.326991546582624859e-01,1.321902645016258537e-01,1.314990542120508810e-01,1.305728413415115641e-01,1.294789004165642354e-01,1.281600357794650813e-01,1.266824519966335272e-01,1.250674176585783171e-01,1.232595985250614090e-01,1.213386720366088217e-01,1.192677485978842489e-01,1.171433043387452022e-01,1.148651862515800703e-01,1.124885792483591163e-01,1.100141689444169568e-01,1.073945150341866495e-01,1.047890472877616719e-01,1.020462180319982176e-01,9.916839423317629076e-02,9.622470594408849554e-02,9.313102694546296356e-02,8.996625553187678759e-02,8.662436577057486264e-02,8.314436805172238654e-02,7.949789784144975502e-02,7.564130701297820669e-02,7.150970158930873566e-02,6.704157819213667213e-02,6.221460361844308867e-02,5.683348701530230307e-02,5.046976226907760182e-02,4.332338067866703391e-02,3.399652392461598172e-02,2.428789059295505953e-02,1.482106701182662502e-02,9.063841880095985237e-03,5.508561612424864654e-03,2.704979049550114163e-03,7.932160094196893290e-04,1.093513798929069851e-04,1.130008942477034871e-05,3.095720482120445369e-08,1.248418522124571155e-12,9.100364091990609202e-14,6.368144887251943273e-25,0.000000000000000000e+00,0.000000000000000000e+00,0.000000000000000000e+00,nan
nan,0.000000000000000000e+00,0.000000000000000000e+00,0.000000000000000000e+00,1.992748873498447329e-20,1.617577485461314829e-10,1.592740906861404296e-10,1.446963103933246463e-07,8.386796494349205524e-06,3.144148055090230376e-04,7.337861888373087976e-04,2.319065718463152181e-03,4.952427624563259315e-03,8.105729977005282985e-03,1.343168398314072490e-02,2.248326172430145306e-02,3.346302822101633601e-02,4.223649373344722652e-02,4.986744567498536951e-02,5.608425363560588101e-02,6.144584960657173411e-02,6.613420359396571246e-02,7.051430791743158732e-02,7.459961978723947396e-02,7.847578683784560416e-02,8.206403595352587677e-02,8.549254872463406263e-02,8.872367961193260155e-02,9.185066424932142315e-02,9.483174786459475092e-02,9.772334444584576674e-02,1.004646829817496534e-01,1.031012903346053833e-01,1.056802619584632924e-01,1.081017557581703398e-01,1.104551508562315876e-01,1.127297900745146131e-01,1.148683854805960247e-01,1.168896774493251023e-01,1.187926947323905691e-01,1.205608274954643733e-01,1.222166299190579897e-01,1.236787502533482352e-01,1.250028497086498047e-01,1.261563447389372483e-01,1.271486375810588487e-01,1.279282505567547190e-01,1.284820862287963661e-01,1.289224947432709434e-01,1.290529606681960206e-01,1.290400670717785914e-01,1.287847222173679751e-01,1.283210008219570764e-01,1.276793841467963875e-01,1.268489395306037215e-01,1.257948428804672725e-01,1.245847562212243353e-01,1.232099112670893559e-01,1.216570108643798276e-01,1.199863196574468965e-01,1.181238536185157256e-01,1.162014161145560331e-01,1.141243087234257714e-01,1.119390234247206739e-01,1.096369418346732488e-01,1.072407135274376366e-01,1.047351722805301422e-01,1.021508483243254162e-01,9.941717859927193257e-02,9.661186882984257318e-02,9.366976152878359052e-02,9.062699190800406479e-02,8.745342691283904124e-02,8.412458585176876835e-02,8.064257760323800817e-02,7.696947663805267514e-02,7.303377386864537413e-02,6.875980409734001875e-02,6.416518327139789091e-02,5.910962711026761240e-02,5.354016960338741499e-02,4.648122256389422557e-02,3.814850873061035458e-02,2.847322754571436632e-02,1.931039803790957424e-02,1.158929311424707585e-02,7.407042553928922662e-03,4.208572961023933877e-03,1.845576514386398741e-03,4.871513967833723921e-04,3.616546615789970607e-05,1.785433272427025603e-06,1.517830792343083356e-10,1.638128601381944969e-13,4.274572866101199973e-19,1.133915435187355418e-36,0.000000000000000000e+00,0.000000000000000000e+00,0.000000000000000000e+00,nan
nan,0.000000000000000000e+00,0.000000000000000000e+00,0.000000000000000000e+00,2.385105799863488302e-33,1.749342065279108224e-15,4.088953624163140507e-15,6.112648884216585386e-08,2.782537295397774628e-06,3.438608157612835198e-05,3.174466478930253448e-04,1.226618369340368251e-03,3.355412527805872250e-03,5.980310214158851209e-03,1.096446554010321178e-02,1.701165658763825056e-02,2.767146792385581644e-02,3.734472358938102643e-02,4.593811116565985064e-02,5.257889296830606934e-02,5.817470299076981516e-02,6.314971102593558427e-02,6.766758864661751027e-02,7.187900752069828481e-02,7.567789829952267788e-02,7.939314489938086028e-02,8.284132034963209712e-02,8.610406935204169276e-02,8.920031533682981628e-02,9.220461361263210254e-02,9.501497441267608979e-02,9.774961295849053655e-02,1.003564100849856783e-01,1.028416853227367977e-01,1.052462797514077397e-01,1.075515448031029025e-01,1.096947878693631528e-01,1.117753568167476202e-01,1.137108319296563086e-01,1.155400960414993128e-01,1.172487548447715133e-01,1.187763081436095935e-01,1.202052028684858914e-01,1.214545507986893313e-01,1.225511814544975042e-01,1.234639368679112115e-01,1.242215214636209208e-01,1.247307738614503586e-01,1.251047489244644928e-01,1.252399147131980639e-01,1.252281366288921505e-01,1.249923874069182872e-01,1.245858157681957318e-01,1.239780328305780388e-01,1.231684017050268809e-01,1.221723740997607000e-01,1.210529096662441850e-01,1.197387412975195325e-01,1.182556015388407933e-01,1.166590639646572086e-01,1.149063589075953740e-01,1.130656941133418580e-01,1.110811254103725026e-01,1.089429791326267938e-01,1.066999367791660602e-01,1.043763541001472561e-01,1.019061905945224111e-01,9.939323190497695304e-02,9.672199558418680121e-02,9.394093426053834461e-02,9.102592393578953778e-02,8.799826009698659413e-02,8.480874991161699294e-02,8.151429965359999197e-02,7.797990478884395116e-02,7.413447940995504526e-02,7.020240060349723643e-02,6.577203833582641324e-02,6.110524054489641088e-02,5.586288911084241054e-02,4.982505087854635639e-02,4.270816287179447085e-02,3.303725445343622114e-02,2.312411332922694948e-02,1.474546269353411987e-02,9.426513437123220512e-03,5.738457420906182063e-03,2.988392818622753223e-03,1.386303391178721114e-03,1.938226075249767117e-04,7.019864006468733205e-06,2.343761545597708651e-08,4.863341291330607916e-11,9.467062687540121820e-16,1.522075506952914315e-27,0.000000000000000000e+00,0.000000000000000000e+00,0.000000000000000000e+00,0.000000000000000000e+00,nan
nan,0.000000000000000000e+00,0.000000000000000000e+00,0.000000000000000000e+00,0.000000000000000000e+00,6.825839466675938933e-16,1.607792598670106895e-15,6.484247271100202076e-11,2.501857518528151625e-08,3.315072709860233352e-06,7.043870535473862552e-05,4.939194521082345291e-04,2.200714886936288618e-03,4.119476770628638547e-03,7.223814368518189331e-03,1.253549497665649992e-02,2.064579161584453176e-02,3.167349675072676091e-02,4.099132388344280120e-02,4.844488946710995975e-02,5.466765978915942570e-02,5.984766448086931839e-02,6.456121559901495388e-02,6.883425973874016113e-02,7.282438250001742330e-02,7.650987639125747530e-02,8.002124351379527600e-02,8.330419335710527451e-02,8.644385453334688107e-02,8.939190021974344202e-02,9.222531195574437679e-02,9.492146056183103919e-02,9.750527588721211170e-02,9.996991861591071615e-02,1.022926120765593888e-01,1.045211606606608751e-01,1.066245180820947491e-01,1.086440750087214607e-01,1.104909357282804483e-01,1.122758702432091610e-01,1.138877140381428787e-01,1.153695259105493587e-01,1.167101565114015138e-01,1.179193169499406918e-01,1.189385450127526389e-01,1.198255125330993376e-01,1.204962841798836587e-01,1.210204670066889476e-01,1.213328820870357844e-01,1.215006742244659210e-01,1.214572947849705403e-01,1.212160759006019328e-01,1.208762894473334182e-01,1.203010922396963167e-01,1.194980399978763236e-01,1.185675143039243984e-01,1.174974338564306608e-01,1.162537958111427294e-01,1.148747727913175254e-01,1.133439243679296715e-01,1.116888812932897712e-01,1.098858293981642559e-01,1.079376577161977879e-01,1.058814330829888073e-01,1.037107995930596771e-01,1.014145076895740655e-01,9.901883204181623210e-02,9.651453679608912317e-02,9.389476542396389680e-02,9.111681898437495875e-02,8.825658779184636371e-02,8.521847506686990037e-02,8.197896529852077840e-02,7.868208192826296743e-02,7.508926795640365193e-02,7.123875945874541538e-02,6.712998348898413514e-02,6.261342699871394468e-02,5.749894421969749259e-02,5.201972564416350309e-02,4.530803338387097423e-02,3.738310354172386107e-02,2.709232839508716323e-02,1.798887821412957846e-02,1.004263222132059305e-02,6.892045680471432963e-03,4.022839823917470983e-03,1.986987799837293140e-03,6.548764746010475720e-04,9.068380532024607546e-05,8.167832003705571784e-06,1.591330705866951158e-10,3.256220201856305130e-15,4.431563428240325523e-22,6.522112465128702386e-33,1.230666794153823802e-33,0.000000000000000000e+00,0.000000000000000000e+00,0.000000000000000000e+00,nan
nan,0.000000000000000000e+00,0.000000000000000000e+00,0.000000000000000000e+00,0.000000000000000000e+00,1.039102211683137843e-34,8.585322935442726201e-18,2.007333461387416699e-16,1.803963098691920360e-08,9.769763163682767776e-07,1.285383504449055250e-05,2.877046964563062634e-04,1.059892243230086024e-03,2.692901467266774033e-03,5.483461526958987101e-03,9.073588513081131887e-03,1.533577899724029164e-02,2.493994665707303243e-02,3.460187926668891606e-02,4.351135726801876741e-02,5.022038076224742686e-02,5.608887572177950753e-02,6.094480076832218401e-02,6.557996788784839493e-02,6.964497577140713047e-02,7.343619733064071786e-02,7.701454156726585121e-02,8.038495194286129908e-02,8.349859978493870405e-02,8.646258326026626251e-02,8.932388681708329503e-02,9.197809709126773814e-02,9.453428960212410803e-02,9.696216098510469783e-02,9.925922605609738270e-02,1.014353817868065000e-01,1.035021164754309358e-01,1.053968586041591077e-01,1.072559685071275831e-01,1.089138487072023598e-01,1.105139153894482695e-01,1.119359443737209941e-01,1.131997452257350323e-01,1.143580728618367182e-01,1.153210260840016738e-01,1.161644686548562178e-01,1.168118731711156877e-01,1.173086923825771566e-01,1.176241122487580726e-01,1.177512683725425585e-01,1.177239447780484977e-01,1.175321011267634747e-01,1.171810887497859166e-01,1.166344471150360523e-01,1.158791015502691757e-01,1.149936289060018990e-01,1.139817553479331586e-01,1.127742885669887341e-01,1.114670961509555136e-01,1.099887149855496987e-01,1.083715368774266774e-01,1.066009475770967885e-01,1.047687828266895826e-01,1.027640957785404957e-01,1.006176173319007217e-01,9.843172609763453651e-02,9.606837730775044659e-02,9.357274571254443896e-02,9.095097435192335544e-02,8.819164885891138395e-02,8.528163737321999005e-02,8.225028070626355658e-02,7.899192601463347896e-02,7.560064987347117627e-02,7.195570264816872341e-02,6.799848598825927737e-02,6.378846542665482511e-02,5.899229411918215787e-02,5.353437954973772755e-02,4.770505004883699579e-02,4.038591897857846807e-02,3.044276549368971074e-02,2.108837364279895696e-02,1.422645482536861496e-02,7.421220886601629860e-03,4.837777869098798707e-03,2.581458942180689820e-03,1.002114354051871718e-03,2.511240629252947795e-04,6.694282211247108694e-05,1.206754305243643497e-06,6.933904224590315553e-09,6.549542192559122289e-16,1.688405574112999217e-22,4.348505934617484590e-33,0.000000000000000000e+00,0.000000000000000000e+00,0.000000000000000000e+00,0.000000000000000000e+00,nan
nan,0.000000000000000000e+00,0.000000000000000000e+00,0.000000000000000000e+00,0.000000000000000000e+00,0.000000000000000000e+00,3.467537569822274858e-36,1.548462453024413680e-19,1.028907331630490006e-08,1.391992895650288031e-07,1.127782077085701311e-05,9.852457532317544656e-05,5.187437659159538188e-04,1.984731058726680632e-03,4.017295618446971306e-03,7.356967206018426991e-03,1.089473920810956481e-02,1.798256915056063374e-02,2.727975615758418751e-02,3.754113468065398140e-02,4.520866050568244504e-02,5.196247284509358105e-02,5.706635893554429934e-02,6.186928553897422245e-02,6.622836390156935926e-02,7.017683117926629133e-02,7.379033378551494438e-02,7.726035537757061644e-02,8.042474398290251625e-02,8.338605957677250324e-02,8.623397795964665713e-02,8.889164494668576333e-02,9.145240388794068087e-02,9.384998437226896306e-02,9.613069215396252698e-02,9.829014178759898357e-02,1.003376240521170332e-01,1.021992554558220634e-01,1.039559239010884040e-01,1.055842320624513220e-01,1.071054241859092232e-01,1.084782575935267918e-01,1.097029269717440386e-01,1.107993722354321670e-01,1.117447681088538231e-01,1.125444735093042437e-01,1.131531741844800237e-01,1.136271480423398650e-01,1.139220831958152880e-01,1.140545919785835305e-01,1.140369089663476054e-01,1.138091162127789213e-01,1.134969141280993132e-01,1.129589652389933752e-01,1.122637743847857972e-01,1.114201353682821305e-01,1.104302142712633855e-01,1.092982862218292439e-01,1.080163806519237740e-01,1.066001872454721000e-01,1.050035442861006751e-01,1.033090931679183228e-01,1.014936076781222524e-01,9.955418512079283744e-02,9.746173858585815974e-02,9.525107908768393195e-02,9.294601590695390769e-02,9.050547616975328225e-02,8.789317483626143956e-02,8.510702193075761479e-02,8.220881180315564585e-02,7.912746675015172593e-02,7.585883054116793200e-02,7.236364262948481729e-02,6.861624945101121864e-02,6.457648828258366613e-02,6.005300191248835739e-02,5.498863875472918133e-02,4.944094751021906042e-02,4.224556534596905777e-02,3.414499383979346936e-02,2.402312226684468616e-02,1.504152047343175133e-02,9.037515906463192139e-03,5.687621912467337275e-03,3.045348251500223664e-03,1.487999349757822797e-03,4.799949191772582592e-04,5.701652076898822602e-05,9.488796925037006302e-06,2.912944682229437270e-06,5.257660392496944043e-09,3.865967681435263277e-23,2.965019347254044420e-23,0.000000000000000000e+00,0.000000000000000000e+00,0.000000000000000000e+00,0.000000000000000000e+00,0.000000000000000000e+00,nan
nan,0.000000000000000000e+00,0.000000000000000000e+00,0.000000000000000000e+00,0.000000000000000000e+00,0.000000000000000000e+00,1.578103716987833185e-20,1.716643343567068967e-19,2.576346308004342856e-13,2.601170396324061093e-07,5.226989406370494115e-07,2.066270241559558396e-05,3.727650240203890302e-04,1.095691111146821980e-03,2.576398191093635850e-03,5.313639952348550924e-03,7.796354998811052227e-03,1.239985043561475653e-02,2.066444806457803235e-02,2.982980327461950965e-02,3.905826705618470340e-02,4.676526225466365316e-02,5.270869362438184574e-02,5.794552646780716521e-02,6.247841077025692580e-02,6.663649589640492643e-02,7.038028371632876201e-02,7.387408066863190848e-02,7.714622147485614145e-02,8.017062823254249293e-02,8.298577348208019400e-02,8.570054625298809126e-02,8.821798492036055095e-02,9.064732918410475793e-02,9.288623099613833867e-02,9.502964346911750571e-02,9.705850033193061388e-02,9.885793393218955671e-02,1.005659691513358101e-01,1.021578840288840662e-01,1.036658829762710232e-01,1.049868461222975974e-01,1.061567408996490769e-01,1.072218792843065982e-01,1.081463978575093188e-01,1.088984790920707046e-01,1.094986413192469837e-01,1.099498020822808897e-01,1.102267869568542835e-01,1.103704287309670296e-01,1.103580781036670455e-01,1.101369103584199372e-01,1.098026945685825484e-01,1.092797651162209505e-01,1.086623892049092266e-01,1.078394193322351757e-01,1.068980441756871014e-01,1.057733680809905541e-01,1.045359983839745932e-01,1.031613105929404112e-01,1.016075175469461633e-01,9.993444274071940081e-02,9.815882131613919148e-02,9.622508679688095146e-02,9.418714315600094922e-02,9.201587115577253284e-02,8.971615990209758085e-02,8.724491322433436391e-02,8.463690844877982955e-02,8.185968703491222631e-02,7.896069749658823911e-02,7.582133827321008157e-02,7.243084674001566692e-02,6.889764453252984755e-02,6.500658608376508329e-02,6.068697666221198328e-02,5.600880991949026833e-02,5.046957659545188435e-02,4.423619221604428720e-02,3.634201153378253252e-02,2.701165391060625018e-02,1.717007425853811498e-02,9.858052410972468690e-03,6.581391653891098190e-03,4.090048711915531508e-03,2.187255883481821050e-03,6.053108593354395751e-04,1.001351622653620383e-04,7.564648293118306911e-06,4.493052063181857743e-08,3.538521597859335562e-09,6.471092162860207159e-17,3.545777385245663912e-18,2.282431137928714094e-37,0.000000000000000000e+00,0.000000000000000000e+00,0.000000000000000000e+00,0.000000000000000000e+00,0.000000000000000000e+00,nan
nan,0.000000000000000000e+00,0.000000000000000000e+00,0.000000000000000000e+00,0.000000000000000000e+00,0.000000000000000000e+00,0.000000000000000000e+00,1.177900629491660006e-20,4.447074639856452713e-20,5.932302550502681033e-10,9.787315052781806645e-08,1.230090092493144296e-05,6.380402250230957344e-05,5.306948280548881786e-04,1.670890514139668085e-03,3.435828032439027738e-03,5.906360896511924849e-03,9.552140990908213752e-03,1.494584568907076499e-02,2.271774406136741614e-02,3.157552476855873813e-02,4.102075110727166490e-02,4.731797128778712086e-02,5.333646932563255311e-02,5.830214408060678533e-02,6.257374901965220837e-02,6.666401662777952930e-02,7.025968531211654322e-02,7.358200361046091098e-02,7.668384627925119157e-02,7.964084238969265650e-02,8.231612776929857211e-02,8.486075926829056426e-02,8.727527215705940811e-02,8.954422506528260384e-02,9.162875976875600736e-02,9.361534420367570442e-02,9.542587045116840416e-02,9.712962528195914769e-02,9.872822059129500449e-02,1.001425191158358263e-01,1.014510178137604662e-01,1.026266742786896280e-01,1.036153031012166381e-01,1.044929692997573906e-01,1.052292525523423061e-01,1.058187011596824212e-01,1.062516447417863885e-01,1.065399975576220848e-01,1.066724417271119468e-01,1.066217018004149836e-01,1.064324904336089311e-01,1.061135670018425875e-01,1.056562969200757207e-01,1.050064173766368514e-01,1.042080240257614310e-01,1.032957412200513903e-01,1.022163197303038590e-01,1.010170460112193719e-01,9.965113817199919288e-02,9.813701115463974167e-02,9.651036457341656549e-02,9.472769410178225047e-02,9.285474309572692986e-02,9.084004494852014611e-02,8.864818055333141544e-02,8.634360476166791365e-02,8.386167060255267369e-02,8.121816335548534549e-02,7.845340669828086699e-02,7.541800216622229769e-02,7.227113070705051823e-02,6.872319497360171447e-02,6.509600630068504423e-02,6.094231587546027062e-02,5.642470266844581972e-02,5.125702764343918055e-02,4.525305625135987719e-02,3.753092225704310336e-02,2.876667332338657401e-02,2.026688418309096143e-02,1.226754557086574479e-02,7.735847022791256418e-03,4.889106732955406272e-03,2.762663254385008989e-03,1.104057383079152469e-03,2.915940931854058438e-04,3.234971159248592942e-05,4.011320278611189439e-06,1.121333815007272603e-09,2.161105337813181164e-12,3.489026249417988952e-17,6.276773824949849149e-34,3.771275799973456042e-38,0.000000000000000000e+00,0.000000000000000000e+00,0.000000000000000000e+00,0.000000000000000000e+00,0.000000000000000000e+00,nan
nan,0.000000000000000000e+00,0.000000000000000000e+00,0.000000000000000000e+00,0.000000000000000000e+00,0.000000000000000000e+00,0.000000000000000000e+00,0.000000000000000000e+00,3.122066623698586873e-29,1.218130873256981487e-19,2.140237376588615336e-13,3.944742685562961228e-07,3.471512798601782281e-05,1.555146621304590655e-04,8.735505235638617088e-04,2.233777236612936000e-03,4.129172029784454814e-03,7.055237190581214665e-03,1.151021453536642432e-02,1.643897240568199802e-02,2.386475437597377833e-02,3.344077603922220032e-02,4.189345604853426941e-02,4.803263325360453834e-02,5.351417261445923224e-02,5.832737009260714756e-02,6.259488472796384539e-02,6.630437548795618807e-02,6.978979840680374358e-02,7.300794025927834219e-02,7.598984056306959389e-02,7.878421193070232753e-02,8.132395386150451100e-02,8.376561473540164449e-02,8.601156577742341547e-02,8.816256071978174902e-02,9.011772314259873518e-02,9.192135053504958686e-02,9.359597914733880364e-02,9.514102003385410677e-02,9.657591322932712607e-02,9.784068120542599445e-02,9.898937299121586542e-02,9.998120245225941560e-02,1.008160319976512675e-01,1.015348047126037045e-01,1.021110198634474636e-01,1.025007142743369903e-01,1.028033385414905132e-01,1.029145031409568201e-01,1.028844490017870039e-01,1.027242657223909061e-01,1.024163108478751832e-01,1.019060427554699666e-01,1.013066530133170107e-01,1.005570839835376595e-01,9.963369453632943407e-02,9.860359612646037164e-02,9.738647361154693927e-02,9.600834294374176181e-02,9.455537908427127936e-02,9.296089932647859377e-02,9.120879512907623110e-02,8.932945607856321302e-02,8.730492996579344855e-02,8.513439193704687435e-02,8.279854479486459251e-02,8.031810418731312462e-02,7.766125362187682735e-02,7.478445350911752665e-02,7.178572506242547613e-02,6.841729472697427594e-02,6.486559839442204711e-02,6.089823130973039123e-02,5.633999614117480431e-02,5.121784566929257071e-02,4.556150782561925461e-02,3.901655152068579657e-02,3.051845050633988574e-02,2.165094224945147278e-02,1.422055881035681410e-02,8.909724958116670146e-03,6.011048701419677287e-03,3.451529056139456854e-03,1.373419530818094413e-03,4.884903009585021046e-04,1.049469785809170451e-04,2.533849079609077717e-06,2.425447900579374224e-08,6.243629690986837990e-09,1.615937680768150751e-15,8.908184440131287278e-16,2.475275587440505436e-34,0.000000000000000000e+00,0.000000000000000000e+00,0.000000000000000000e+00,0.000000000000000000e+00,0.000000000000000000e+00,0.000000000000000000e+00,nan
nan,0.000000000000000000e+00,0.000000000000000000e+00,0.000000000000000000e+00,0.000000000000000000e+00,0.000000000000000000e+00,0.000000000000000000e+00,0.000000000000000000e+00,1.629544259614931595e-29,2.884292020851149626e-20,1.736494614194675878e-10,6.650370467451296520e-08,2.644729312323193770e-06,6.832987109643637324e-05,4.154700824730912139e-04,1.039306374873536117e-03,2.672016828801371431e-03,4.730849768919355783e-03,8.099649188765356209e-03,1.209458786696474344e-02,1.787334314059541712e-02,2.562865157673777095e-02,3.457321556866943535e-02,4.201587908700852442e-02,4.821034809686236544e-02,5.344314614523860280e-02,5.802245565740169614e-02,6.212405659207975717e-02,6.571845672083652390e-02,6.907247946403941019e-02,7.217582753640826299e-02,7.495323281960464268e-02,7.765837401668686246e-02,8.009790503093602854e-02,8.235636254404365975e-02,8.451893439504920558e-02,8.648124959290390268e-02,8.828137412005500340e-02,8.993740142190898013e-02,9.147912621240904263e-02,9.287873924628783917e-02,9.414997025761488725e-02,9.523441046820459166e-02,9.625549626699501926e-02,9.709649490442234798e-02,9.777649506048685657e-02,9.832500717070163931e-02,9.876532426831426126e-02,9.901240286892479259e-02,9.912431879509089883e-02,9.910306470512186827e-02,9.893493166993430621e-02,9.857033651817634357e-02,9.815378978983679836e-02,9.751566769725247830e-02,9.677463236223761422e-02,9.587417857225745410e-02,9.484941512679470610e-02,9.366931831771133088e-02,9.236422315867641453e-02,9.087345583887962430e-02,8.928998522416348171e-02,8.754866665017975447e-02,8.564759423463438881e-02,8.360367406462572426e-02,8.140484124818136991e-02,7.905505381233605966e-02,7.653984512695277687e-02,7.382120160344664284e-02,7.090361741486655989e-02,6.782001257362976765e-02,6.431558512486398871e-02,6.058392914702789844e-02,5.644951015670646166e-02,5.162144627264673991e-02,4.609480718647165215e-02,3.922546645975738544e-02,3.126476456286756550e-02,2.302539111689072548e-02,1.574335927824487003e-02,1.023683174793589210e-02,6.605944719974315288e-03,4.285284942701791076e-03,1.914329981744024387e-03,5.176556506049638951e-04,1.034584993751081167e-04,6.699326544688075807e-05,1.502656501000353103e-07,1.400567628767156824e-09,2.680164824596431706e-12,8.689977797682644272e-20,8.531603054320853641e-27,2.160434757969910952e-40,0.000000000000000000e+00,0.000000000000000000e+00,0.000000000000000000e+00,0.000000000000000000e+00,0.000000000000000000e+00,0.000000000000000000e+00,nan
nan,0.000000000000000000e+00,0.000000000000000000e+00,0.000000000000000000e+00,0.000000000000000000e+00,0.000000000000000000e+00,0.000000000000000000e+00,0.000000000000000000e+00,0.000000000000000000e+00,2.041658233628869277e-24,9.952820421920732279e-11,9.014618709138013986e-09,1.907894385766573120e-06,8.982616094418914882e-06,8.892932605691654857e-05,4.997112698721257453e-04,1.353889350095653686e-03,3.294142338769681481e-03,5.412812633620813288e-03,8.460298415981594433e-03,1.206168947683418542e-02,1.806787818780327542e-02,2.651663154985726273e-02,3.509513596672236141e-02,4.194608656936250901e-02,4.785714051154560389e-02,5.283612686851188456e-02,5.717861094097866775e-02,6.123199303738714044e-02,6.481636617832847724e-02,6.799652635007819024e-02,7.098150153614769808e-02,7.365745365690803959e-02,7.621726207730983305e-02,7.849374401847607208e-02,8.069322403123246890e-02,8.268759524687063767e-02,8.451902474716177505e-02,8.615164101319769396e-02,8.770641553122632272e-02,8.909187178896860182e-02,9.032850451732771235e-02,9.145470604776187451e-02,9.243907475042337230e-02,9.324226083050032865e-02,9.392914449318789938e-02,9.451274061753894840e-02,9.490819019622973030e-02,9.513788101649012230e-02,9.527479678714127764e-02,9.525707865704090282e-02,9.505608530939993472e-02,9.474384966633465910e-02,9.430146413581608211e-02,9.370664817374134425e-02,9.293443918247883129e-02,9.206060378912118980e-02,9.100283667367836671e-02,8.985037649169075324e-02,8.854571794237617310e-02,8.707200421907348997e-02,8.549043330162678367e-02,8.373960623709633677e-02,8.181042246395482664e-02,7.977148280661114366e-02,7.751916730524280319e-02,7.511155747049942655e-02,7.250677170080235823e-02,6.974699306558219958e-02,6.666296268786768564e-02,6.343541915274100718e-02,5.982694206363450840e-02,5.583225908986117619e-02,5.124334878292410161e-02,4.599337543783463961e-02,3.926861402480107122e-02,3.181090025076467598e-02,2.345775804178483123e-02,1.570498092016889280e-02,1.207038201887125281e-02,6.928116897318749474e-03,4.550557051901690624e-03,2.645244714750135968e-03,1.095129685438330468e-03,1.505408189107491944e-04,1.577544294192334765e-05,3.484989247844674326e-07,6.691448645402150553e-10,6.184303088980199213e-11,1.833517200377319008e-13,1.246196707783445936e-22,3.070660441679581748e-23,0.000000000000000000e+00,0.000000000000000000e+00,0.000000000000000000e+00,0.000000000000000000e+00,0.000000000000000000e+00,0.000000000000000000e+00,0.000000000000000000e+00,nan
nan,0.000000000000000000e+00,0.000000000000000000e+00,0.000000000000000000e+00,0.000000000000000000e+00,0.000000000000000000e+00,0.000000000000000000e+00,0.000000000000000000e+00,0.000000000000000000e+00,1.440227909821352884e-24,1.127987521553956357e-16,3.454218427053886157e-09,4.138434154435634571e-10,4.530964744110022717e-07,1.466985448922606157e-05,1.133603483925767089e-04,6.322700720297111778e-04,1.735893542138769712e-03,3.375429927433378462e-03,5.907662391721857365e-03,8.431431129466534363e-03,1.217912055484587051e-02,1.869233850121727880e-02,2.678110298784109472e-02,3.472300535531670784e-02,4.100125109853937355e-02,4.690745181390718055e-02,5.197121807523255588e-02,5.612353117914507111e-02,6.006815720675005854e-02,6.348254749563563004e-02,6.661956152098166828e-02,6.941279682527168315e-02,7.201038522178071499e-02,7.447691261497750570e-02,7.662185874016963494e-02,7.868857619514597890e-02,8.053918136317457510e-02,8.224168793009804801e-02,8.377211017972271967e-02,8.517195378346173462e-02,8.644000118578100411e-02,8.751129781192483470e-02,8.846955327345744358e-02,8.929219876581187543e-02,8.997261722596133771e-02,9.054791579758317277e-02,9.094462340380315979e-02,9.118544587015359193e-02,9.129483668665153151e-02,9.127438874102238031e-02,9.111534185973513278e-02,9.078262432376382751e-02,9.035712967267126028e-02,8.975962180870517004e-02,8.898971918376152868e-02,8.811146088259130815e-02,8.710153470468137704e-02,8.588401240102891410e-02,8.456339521441097462e-02,8.312331434207623215e-02,8.149067545097193888e-02,7.975186701060835159e-02,7.781751556375529622e-02,7.564779693264371552e-02,7.336127192119218376e-02,7.085918913784824968e-02,6.822385072188176525e-02,6.525648150628154953e-02,6.212556946741579211e-02,5.846770948731774831e-02,5.473783507744568733e-02,5.008399737333639468e-02,4.504541226461786230e-02,3.894753191761000238e-02,3.216050879237120075e-02,2.379213724820718884e-02,1.528331774758941684e-02,1.077746302240021117e-02,7.224193337592871474e-03,4.618511443110419508e-03,2.876503407944294970e-03,1.249629550046558579e-03,3.777659723003943442e-04,5.175334172703108265e-05,1.964398477468949702e-06,3.967668500895143165e-08,6.282671172171052790e-09,5.363751496545889858e-15,2.388604938108879561e-21,1.484667616828774166e-31,3.328159280724584219e-34,0.000000000000000000e+00,0.000000000000000000e+00,0.000000000000000000e+00,0.000000000000000000e+00,0.000000000000000000e+00,0.000000000000000000e+00,0.000000000000000000e+00,nan
nan,0.000000000000000000e+00,0.000000000000000000e+00,0.000000000000000000e+00,0.000000000000000000e+00,0.000000000000000000e+00,0.000000000000000000e+00,0.000000000000000000e+00,0.000000000000000000e+00,4.325010364519826706e-32,1.104648041902601208e-31,2.294084513824710073e-21,1.864723299146499925e-14,3.355278693478281111e-10,3.175494117710262187e-06,7.506638153709029493e-05,2.125041708631369227e-04,7.184406913634394654e-04,1.747107207304084402e-03,3.736477768623022635e-03,5.926937363393499497e-03,9.252122363822582948e-03,1.326423163673847924e-02,1.845744085173031332e-02,2.624069724732705500e-02,3.388821843435770725e-02,4.012625633847355378e-02,4.566220125358076698e-02,5.067391004418449196e-02,5.481737608660637584e-02,5.845555069449034913e-02,6.179095477893338517e-02,6.478372184090028241e-02,6.757001634032340498e-02,7.009068163428963660e-02,7.239781656481798777e-02,7.447445510124749146e-02,7.638683271095729477e-02,7.806623191502462533e-02,7.966119939596956467e-02,8.107055163484525040e-02,8.236352867203594608e-02,8.341636808223046318e-02,8.442264561632371878e-02,8.524518639612597981e-02,8.594249216505828182e-02,8.645937014842132451e-02,8.686152977459993263e-02,8.710558899572572178e-02,8.723413668331819748e-02,8.720615260782557665e-02,8.704350192334839309e-02,8.673154848865853583e-02,8.624721731117925005e-02,8.562071863337503141e-02,8.488233952994665710e-02,8.404944343632717030e-02,8.298055440709442565e-02,8.180737698986405293e-02,8.045700461126681358e-02,7.893812481767245592e-02,7.725831546081499135e-02,7.547870933411053584e-02,7.346540986017882635e-02,7.129113612150525525e-02,6.882494280877317350e-02,6.617223458503987410e-02,6.348897199816075365e-02,6.048919228288440753e-02,5.694694625407897837e-02,5.325619848056904748e-02,4.895871715614903696e-02,4.390040088226097870e-02,3.786477554953227020e-02,3.070975288929107816e-02,2.302342356183762276e-02,1.599946789992516549e-02,1.023044010508742524e-02,7.404638357599138514e-03,5.134110519522024248e-03,2.644773151467213340e-03,1.354270682088489072e-03,4.345277494760631698e-04,9.982852639125739920e-05,8.219548220029369002e-06,3.442634299961393265e-09,1.881863390174414181e-11,2.707583470027145654e-17,6.840356607910073036e-21,4.900942612507447576e-31,0.000000000000000000e+00,0.000000000000000000e+00,0.000000000000000000e+00,0.000000000000000000e+00,0.000000000000000000e+00,0.000000000000000000e+00,0.000000000000000000e+00,0.000000000000000000e+00,0.000000000000000000e+00,nan
nan,0.000000000000000000e+00,0.000000000000000000e+00,0.000000000000000000e+00,0.000000000000000000e+00,0.000000000000000000e+00,0.000000000000000000e+00,0.000000000000000000e+00,0.000000000000000000e+00,0.000000000000000000e+00,3.047989535903607180e-32,6.806705759293907745e-22,2.810026316272058159e-21,3.725399687316953756e-13,1.235371333051922135e-09,3.290617751793952683e-07,1.919148487713299864e-05,1.722902492723452160e-04,7.265793748791979801e-04,2.159082583791644468e-03,3.707960289665285410e-03,5.946770005023233226e-03,9.187185673873519975e-03,1.302296467742721474e-02,1.821699724766821446e-02,2.517518957987274417e-02,3.231632539566091367e-02,3.843455185063175683e-02,4.422409544637417173e-02,4.898380533744626369e-02,5.288431546077754924e-02,5.652206676135632102e-02,5.976476322495610782e-02,6.271560744225089523e-02,6.534122135594101766e-02,6.772869759326040351e-02,6.995796324428427138e-02,7.189535625121920570e-02,7.370469583457807394e-02,7.528333711311203935e-02,7.678690147118188980e-02,7.805089077762326910e-02,7.912547967679622873e-02,8.013827539538581624e-02,8.099640077967157348e-02,8.166117849823065211e-02,8.223849066925456586e-02,8.263720899051932300e-02,8.287003547669413717e-02,8.297019102551687897e-02,8.298731145481598459e-02,8.282027609282134606e-02,8.243737137003039062e-02,8.201167596663291870e-02,8.140654150795222088e-02,8.062137938305580231e-02,7.974259681286224866e-02,7.864726836515463504e-02,7.744891243195931030e-02,7.606848918280581517e-02,7.451067377839151740e-02,7.279242711513742026e-02,7.081374692586964170e-02,6.877850423619319420e-02,6.652438892832306105e-02,6.395888845401506706e-02,6.097041516743852835e-02,5.821763136617090495e-02,5.500410271489070135e-02,5.125857516874399861e-02,4.672389264880507515e-02,4.207913109487049219e-02,3.607627566844420763e-02,2.920475891052885450e-02,2.172208373278957522e-02,1.462771979343081494e-02,1.024251585555979033e-02,6.954323224293098953e-03,4.952563107531985157e-03,3.011229619209099609e-03,1.493799670021198978e-03,4.964888926226727244e-04,8.213394645531861256e-05,8.434147952835076810e-06,1.661687982155187908e-07,3.141273117795545875e-10,9.754718784110142511e-17,1.044240372886211992e-16,1.980672307413864302e-31,0.000000000000000000e+00,0.000000000000000000e+00,0.000000000000000000e+00,0.000000000000000000e+00,0.000000000000000000e+00,0.000000000000000000e+00,0.000000000000000000e+00,0.000000000000000000e+00,0.000000000000000000e+00,0.000000000000000000e+00,nan
nan,0.000000000000000000e+00,0.000000000000000000e+00,0.000000000000000000e+00,0.000000000000000000e+00,0.000000000000000000e+00,0.000000000000000000e+00,0.000000000000000000e+00,0.000000000000000000e+00,0.000000000000000000e+00,0.000000000000000000e+00,4.861132134187536590e-32,1.209210998292851535e-22,2.502953989804056598e-13,7.560025789961683636e-14,1.859065268531963820e-07,1.248215633718589494e-05,8.689715487563245524e-06,1.899457468522725836e-04,7.801493500605106903e-04,1.958112486597200601e-03,3.744664550668805672e-03,5.910413254237911751e-03,8.698665051094631520e-03,1.160301709795455785e-02,1.774350794786783841e-02,2.246847869278524590e-02,2.957901417543375155e-02,3.600380044698834464e-02,4.171917048648063342e-02,4.632053045805980401e-02,5.049870736233668528e-02,5.407772819859103797e-02,5.725150241184095989e-02,6.019168849879976552e-02,6.265694120113533827e-02,6.487768423661734174e-02,6.710227501734257471e-02,6.888259903028969011e-02,7.065085959823730333e-02,7.208667843684220256e-02,7.347998245770280545e-02,7.466745337144661820e-02,7.563671819000697405e-02,7.651355701886809746e-02,7.719869294691841799e-02,7.776113415251185990e-02,7.816498842068986264e-02,7.842468249371821465e-02,7.851165001406773536e-02,7.848859816039599480e-02,7.830005805601421287e-02,7.800831757599065164e-02,7.754566929833010824e-02,7.684851961886121630e-02,7.608497069791846090e-02,7.512628242905129705e-02,7.405281452586998103e-02,7.286533424436225648e-02,7.138037774719670214e-02,6.979633927171363661e-02,6.798571956636731417e-02,6.595128684626484772e-02,6.371985468947843900e-02,6.120160421482965379e-02,5.856389426764650741e-02,5.597563547770611353e-02,5.238410998677688751e-02,4.899803437261707195e-02,4.464216122241742440e-02,3.968540518572839793e-02,3.346489193498694559e-02,2.654855810869004296e-02,1.996828758455128014e-02,1.268348797373488636e-02,8.713304242548612980e-03,6.049139534209879709e-03,4.353557925202245632e-03,2.948183952368749888e-03,1.481065345919565287e-03,6.415488632385680070e-04,9.116322257139548532e-05,5.637055334665127290e-05,1.019990311484781606e-06,4.543983289394360516e-08,1.287421996417432097e-14,2.992663750158939019e-15,1.939652476415587166e-32,0.000000000000000000e+00,0.000000000000000000e+00,0.000000000000000000e+00,0.000000000000000000e+00,0.000000000000000000e+00,0.000000000000000000e+00,0.000000000000000000e+00,0.000000000000000000e+00,0.000000000000000000e+00,0.000000000000000000e+00,0.000000000000000000e+00,nan
nan,0.000000000000000000e+00,0.000000000000000000e+00,0.000000000000000000e+00,0.000000000000000000e+00,0.000000000000000000e+00,0.000000000000000000e+00,0.000000000000000000e+00,0.000000000000000000e+00,0.000000000000000000e+00,0.000000000000000000e+00,0.000000000000000000e+00,0.000000000000000000e+00,5.990146534991366239e-28,4.169820254477176201e-19,1.394067715707395934e-13,3.928419870050639176e-09,7.632951736424695396e-07,3.103311386811485358e-05,2.462263149174031868e-04,8.726570020706853016e-04,2.111455348251613240e-03,3.533936405301537666e-03,5.170695253125803630e-03,7.437212561883748199e-03,1.002297020794411242e-02,1.404319609436156802e-02,2.053087564339966392e-02,2.642841939976308188e-02,3.223772241867367550e-02,3.822365021553249947e-02,4.287217029056354656e-02,4.752089343297791202e-02,5.129201120392437585e-02,5.440407543415324426e-02,5.720362329406218638e-02,5.962582257377099793e-02,6.180329879760619594e-02,6.387757791792807172e-02,6.561423097637530955e-02,6.720487153304953443e-02,6.858581054377542452e-02,6.980217556235407406e-02,7.091076673772614414e-02,7.172019792143467798e-02,7.250008832066136277e-02,7.301868969845072554e-02,7.341745646959993432e-02,7.363687183783287904e-02,7.386976411971279965e-02,7.374777280868301255e-02,7.361895614410753075e-02,7.331962089145238615e-02,7.273900702793509310e-02,7.208430819796272926e-02,7.122864051653748918e-02,7.030804577891666685e-02,6.914734836282929176e-02,6.785501062209561840e-02,6.628098977308782835e-02,6.457636030949165384e-02,6.270975032070437438e-02,6.045714602906467755e-02,5.797941824416009970e-02,5.546644159527246154e-02,5.254873053805215327e-02,5.010935019210704250e-02,4.628937195645364128e-02,4.231827534942127905e-02,3.618220561642537803e-02,3.040481783295768958e-02,2.363474758668679052e-02,1.713175102542252928e-02,1.120249234426239603e-02,8.074293875887155955e-03,5.492468125291867509e-03,3.709821930454203134e-03,2.227622098275520816e-03,1.207440304225110327e-03,3.474959511193812444e-04,8.939323735749439342e-05,1.252906078369438043e-05,7.345818816680000647e-08,1.348735607511081329e-08,8.974469851244253460e-12,1.842871247232282577e-16,9.745361864725777601e-25,4.728507648620124526e-37,0.000000000000000000e+00,0.000000000000000000e+00,0.000000000000000000e+00,0.000000000000000000e+00,0.000000000000000000e+00,0.000000000000000000e+00,0.000000000000000000e+00,0.000000000000000000e+00,0.000000000000000000e+00,0.000000000000000000e+00,0.000000000000000000e+00,nan
nan,0.000000000000000000e+00,0.000000000000000000e+00,0.000000000000000000e+00,0.000000000000000000e+00,0.000000000000000000e+00,0.000000000000000000e+00,0.000000000000000000e+00,0.000000000000000000e+00,0.000000000000000000e+00,0.000000000000000000e+00,0.000000000000000000e+00,0.000000000000000000e+00,4.104473732573218168e-28,1.312780411615449745e-27,2.820928457724296303e-18,2.354892251392516114e-12,1.117847930809606978e-08,2.011319855962532921e-06,5.312666071564159425e-05,3.777365783796933583e-04,7.229272361572755372e-04,1.675272860650493367e-03,2.972238328471656869e-03,4.688125318467463790e-03,6.264884881573464480e-03,8.492602243033636755e-03,1.149006037930860695e-02,1.587906187177046471e-02,2.240939821671944845e-02,2.830245544201553942e-02,3.416322034128276008e-02,3.963852438246059234e-02,4.408114603936402753e-02,4.776323792012803632e-02,5.089704740877051825e-02,5.349370185095671248e-02,5.591869475424531000e-02,5.818346801447059347e-02,5.987527848944994291e-02,6.182983881668726450e-02,6.327531032095913555e-02,6.459455467041981536e-02,6.568398257887089753e-02,6.660155672149153938e-02,6.737811272776782212e-02,6.793072416931650315e-02,6.839933778379350682e-02,6.866558560459881666e-02,6.880612956995293961e-02,6.871273585574455556e-02,6.854952269327416192e-02,6.815733324004445703e-02,6.767834381223267193e-02,6.692124057126525027e-02,6.603284982066347231e-02,6.497318690882607217e-02,6.375719280098539332e-02,6.230243751246167250e-02,6.064935802553883537e-02,5.876073569227056870e-02,5.667233033160538891e-02,5.439694986635182361e-02,5.170056848944060840e-02,4.892823035425339362e-02,4.607046567987132385e-02,4.309725129870792260e-02,3.900173365216044741e-02,3.312972071331535956e-02,2.657852774821422084e-02,1.989175243732852275e-02,1.506878686468735365e-02,1.107632720970219697e-02,7.582228979002363436e-03,5.317404717036406346e-03,3.353016095437445169e-03,1.879073498604722815e-03,1.113445690513865287e-03,4.465262495109096957e-04,6.790519452197286466e-05,5.065307545040573905e-06,1.427694396840922987e-06,7.396935953250079170e-11,4.831874669391168305e-15,2.579035621528481842e-22,7.698148875129202562e-25,9.786732287033880512e-37,2.968859886786096814e-39,0.000000000000000000e+00,0.000000000000000000e+00,0.000000000000000000e+00,0.000000000000000000e+00,0.000000000000000000e+00,0.000000000000000000e+00,0.000000000000000000e+00,0.000000000000000000e+00,0.000000000000000000e+00,0.000000000000000000e+00,0.000000000000000000e+00,nan
nan,0.000000000000000000e+00,0.000000000000000000e+00,0.000000000000000000e+00,0.000000000000000000e+00,0.000000000000000000e+00,0.000000000000000000e+00,0.000000000000000000e+00,0.000000000000000000e+00,0.000000000000000000e+00,0.000000000000000000e+00,0.000000000000000000e+00,0.000000000000000000e+00,3.586261042337608056e-39,1.952999445610365459e-26,5.869623697960044309e-18,2.360572065846619442e-17,7.868207594781959123e-09,6.249398345700995118e-08,6.202350592687027185e-06,7.876954060535750813e-05,2.835694929257684621e-04,7.398520855986809655e-04,1.394536978010867860e-03,2.606731552894706733e-03,3.910749857520075604e-03,5.821996963560564960e-03,7.659965016043483732e-03,9.998373829741027258e-03,1.288816239747167004e-02,1.850804135336483330e-02,2.321714624301336738e-02,2.954971295309970561e-02,3.513828160109777610e-02,3.962689871085682547e-02,4.316326998096010892e-02,4.634341282383482030e-02,4.899637571708566341e-02,5.162762797428853412e-02,5.374092830940805504e-02,5.577256178428956213e-02,5.735861680698894904e-02,5.878599958437519257e-02,5.995507944856179328e-02,6.097406629514747628e-02,6.184992326263977908e-02,6.250010939285881306e-02,6.289478169699802557e-02,6.317139682357182651e-02,6.321513788277385859e-02,6.318977106784648412e-02,6.310515885248911550e-02,6.272887830643018858e-02,6.212676608084401197e-02,6.129877967336051781e-02,6.032075190312471968e-02,5.907569137266673737e-02,5.756326817837461446e-02,5.623853076734360024e-02,5.411880138810111485e-02,5.208210725790984180e-02,4.931896162231068359e-02,4.711771320706163724e-02,4.418881638403586443e-02,4.113279024702223147e-02,3.765019387385499378e-02,3.410000346215656675e-02,2.854649755387003024e-02,2.267876829627533258e-02,1.702065654577571488e-02,1.193737052599840552e-02,9.332578304920487525e-03,6.514561197849174853e-03,4.774734348161144976e-03,2.813805432415899047e-03,1.347120390533824725e-03,7.537733133432777651e-04,2.158664743864844638e-04,3.338822025418488519e-05,1.253562883177848423e-05,5.604958105231503295e-07,6.013243418345192908e-08,3.178033798009556375e-12,1.670166080157115331e-22,1.133818273726583739e-32,1.669539991709032476e-35,0.000000000000000000e+00,0.000000000000000000e+00,0.000000000000000000e+00,0.000000000000000000e+00,0.000000000000000000e+00,0.000000000000000000e+00,0.000000000000000000e+00,0.000000000000000000e+00,0.000000000000000000e+00,0.000000000000000000e+00,0.000000000000000000e+00,0.000000000000000000e+00,0.000000000000000000e+00,nan
nan,0.000000000000000000e+00,0.000000000000000000e+00,0.000000000000000000e+00,0.000000000000000000e+00,0.000000000000000000e+00,0.000000000000000000e+00,0.000000000000000000e+00,0.000000000000000000e+00,0.000000000000000000e+00,0.000000000000000000e+00,0.000000000000000000e+00,0.000000000000000000e+00,0.000000000000000000e+00,1.712319435231319793e-26,1.795507945919311478e-26,1.417279813722261948e-17,2.176841025912567134e-14,1.500400704164966906e-10,1.623774309165762284e-07,7.071379750281585292e-07,8.966507072999010508e-05,1.940626543205112927e-04,6.769789865672533021e-04,1.312320660567717345e-03,1.943907965398858004e-03,3.486313250259585623e-03,4.777116819854978699e-03,6.343591096976963772e-03,8.236666877271769244e-03,1.078257521786699959e-02,1.351331175887859719e-02,1.908912448306439302e-02,2.503550434007507583e-02,2.933301193861012623e-02,3.338713596987375604e-02,3.738318422042823108e-02,4.095644261752416637e-02,4.394650769861055406e-02,4.594725271886811180e-02,4.839010359621422064e-02,5.063004739351480848e-02,5.211793563373898902e-02,5.355311545342152091e-02,5.448886281061084136e-02,5.527814148744013972e-02,5.617257874585050020e-02,5.661654724884592621e-02,5.698917667911022195e-02,5.703874701173509976e-02,5.707253784251307971e-02,5.686057444912324954e-02,5.650574378731759023e-02,5.586291911619582773e-02,5.476457638701028030e-02,5.387270537816400001e-02,5.246310694808299646e-02,5.103674484392702743e-02,4.901531186749034930e-02,4.681319424101002685e-02,4.399703496746149717e-02,4.056578557607015689e-02,3.810263240064729745e-02,3.473541499172516644e-02,3.101687249883831182e-02,2.710717617028120946e-02,2.235704245442166060e-02,1.709130111409962530e-02,1.308566231343589320e-02,1.007718892361764845e-02,8.135999424791196671e-03,5.892556357815123200e-03,3.997957673110339935e-03,2.440507348280397757e-03,1.397046356882427785e-03,5.163012465291156325e-04,1.653121289137627270e-04,4.599283938167832934e-05,1.697270869565240090e-05,3.858233748683392207e-07,1.280016391398498895e-09,1.193194829686964975e-09,1.534137408961748105e-17,3.405776074768881534e-33,0.000000000000000000e+00,0.000000000000000000e+00,0.000000000000000000e+00,0.000000000000000000e+00,0.000000000000000000e+00,0.000000000000000000e+00,0.000000000000000000e+00,0.000000000000000000e+00,0.000000000000000000e+00,0.000000000000000000e+00,0.000000000000000000e+00,0.000000000000000000e+00,0.000000000000000000e+00,0.000000000000000000e+00,0.000000000000000000e+00,nan
nan,0.000000000000000000e+00,0.000000000000000000e+00,0.000000000000000000e+00,0.000000000000000000e+00,0.000000000000000000e+00,0.000000000000000000e+00,0.000000000000000000e+00,0.000000000000000000e+00,0.000000000000000000e+00,0.000000000000000000e+00,0.000000000000000000e+00,0.000000000000000000e+00,0.000000000000000000e+00,0.000000000000000000e+00,3.533286196599052973e-39,2.922799447636703545e-38,5.587279185073299001e-26,1.010695855614307010e-13,6.146752302355465205e-13,5.017301223477225851e-09,2.673196198152927116e-05,2.073326007960478397e-05,1.882002167116994962e-04,5.116114090880893904e-04,8.546383993783583048e-04,1.547451744907407060e-03,2.264017493555281826e-03,3.787815872153689478e-03,5.357218357601150477e-03,6.804099999050927140e-03,8.500847190088286001e-03,1.175239640601275816e-02,1.695282493077743952e-02,1.833350626637910916e-02,2.315666629032341745e-02,2.603438054042625169e-02,3.008767510268161444e-02,3.372201235843425710e-02,3.697370086021548041e-02,3.972314883566151200e-02,4.195640440083914235e-02,4.400002134424042116e-02,4.506954613497740625e-02,4.685766379790055891e-02,4.759313103036618559e-02,4.870943989378987565e-02,4.951794008366047772e-02,4.981831496381519675e-02,5.022887671970719531e-02,5.030765220136401011e-02,4.963283392996072074e-02,4.931660094011097728e-02,4.838348429924008154e-02,4.724425779596341107e-02,4.614998527246802484e-02,4.451495016522372117e-02,4.259834965794285361e-02,4.038031242399378606e-02,3.733980235532766839e-02,3.376107768560658584e-02,3.261167461732127071e-02,2.791899862679592809e-02,2.384031629223060805e-02,1.968525674759305163e-02,1.633171454375371631e-02,1.304268520856903708e-02,1.082758268953665920e-02,7.917464433223220244e-03,6.625269606689855942e-03,4.848112785451009696e-03,3.528090587807264453e-03,1.978889354629711182e-03,1.093480739234959677e-03,3.325931355839319451e-04,2.231389335474802632e-04,4.043665749251894304e-05,1.925437035504160962e-05,5.943194947180308434e-07,1.658297029934263187e-10,8.102118662021141914e-18,7.915245602123719708e-20,7.512929066339260124e-21,4.045926429774457277e-38,0.000000000000000000e+00,0.000000000000000000e+00,0.000000000000000000e+00,0.000000000000000000e+00,0.000000000000000000e+00,0.000000000000000000e+00,0.000000000000000000e+00,0.000000000000000000e+00,0.000000000000000000e+00,0.000000000000000000e+00,0.000000000000000000e+00,0.000000000000000000e+00,0.000000000000000000e+00,0.000000000000000000e+00,0.000000000000000000e+00,nan
nan,0.000000000000000000e+00,0.000000000000000000e+00,0.000000000000000000e+00,0.000000000000000000e+00,0.000000000000000000e+00,0.000000000000000000e+00,0.000000000000000000e+00,0.000000000000000000e+00,0.000000000000000000e+00,0.000000000000000000e+00,0.000000000000000000e+00,0.000000000000000000e+00,0.000000000000000000e+00,0.000000000000000000e+00,0.000000000000000000e+00,0.000000000000000000e+00,1.851028809221710608e-38,3.701164661438367795e-28,8.626600806098589044e-15,3.615643171874817984e-10,3.026986372558474759e-07,3.101144390681322311e-07,3.605096862055661518e-05,3.211977747198317787e-05,1.702485349739569121e-04,5.611876818079024462e-04,1.168749541305486939e-03,1.862052626486041321e-03,2.990351731699378637e-03,4.404873471499187905e-03,5.631330526522057220e-03,7.009387326011338321e-03,8.846787350402885580e-03,1.036838801239797249e-02,1.272061560095349986e-02,1.542305448987855987e-02,1.830009808128361948e-02,2.170614331913549994e-02,2.608705864540472597e-02,2.910329182841967649e-02,3.172162081571228837e-02,3.405254714878521577e-02,3.580075817616218403e-02,3.739001688493115427e-02,3.874118413285446150e-02,3.988989589374284522e-02,4.027780744460752321e-02,4.139325553259261270e-02,4.187123005971721268e-02,4.167531201998377066e-02,4.121038391119689892e-02,3.987708893079315586e-02,3.945028569209493158e-02,3.780372860603215673e-02,3.617006135594446475e-02,3.417118627214535409e-02,3.236871918897760159e-02,3.027890786646364463e-02,2.711380965211161037e-02,2.411205136199920385e-02,2.296161372086251776e-02,1.873632329425264226e-02,1.556729313999324210e-02,1.205467355802553216e-02,1.013778112021698416e-02,8.169451726273455755e-03,6.479200358394861595e-03,4.741304048238984860e-03,3.656987463963189480e-03,2.552273936810611592e-03,1.505759713878890640e-03,7.630367382498780358e-04,2.605363981979579111e-04,1.083235058043898266e-04,2.902889141590986828e-05,2.730116706377707827e-06,2.754859530369514062e-08,1.586125455094316065e-09,1.160403155784058196e-13,1.785811090245765545e-18,1.642140361460297380e-29,0.000000000000000000e+00,2.412978920111635716e-38,0.000000000000000000e+00,0.000000000000000000e+00,0.000000000000000000e+00,0.000000000000000000e+00,0.000000000000000000e+00,0.000000000000000000e+00,0.000000000000000000e+00,0.000000000000000000e+00,0.000000000000000000e+00,0.000000000000000000e+00,0.000000000000000000e+00,0.000000000000000000e+00,0.000000000000000000e+00,0.000000000000000000e+00,0.000000000000000000e+00,nan
nan,0.000000000000000000e+00,0.000000000000000000e+00,0.000000000000000000e+00,0.000000000000000000e+00,0.000000000000000000e+00,0.000000000000000000e+00,0.000000000000000000e+00,0.000000000000000000e+00,0.000000000000000000e+00,0.000000000000000000e+00,0.000000000000000000e+00,0.000000000000000000e+00,0.000000000000000000e+00,0.000000000000000000e+00,0.000000000000000000e+00,0.000000000000000000e+00,0.000000000000000000e+00,1.186540611491229464e-28,7.499959285218195928e-19,4.132121024774781704e-14,1.553391262297580291e-12,2.018478624169137419e-09,6.294921849705601646e-09,3.993916334740808195e-07,1.611415400853561181e-05,7.796350025238816422e-05,3.126299040269242069e-04,5.350437616786355485e-04,1.271428570173743734e-03,1.899817596279455758e-03,3.109433541980659993e-03,3.811497561701043812e-03,4.928080026908233935e-03,6.040162548572395804e-03,7.134665170446712404e-03,8.469710821879014584e-03,9.916912966972864577e-03,1.382047540034478383e-02,1.517794806428960329e-02,1.735055075565117982e-02,2.074365507620159685e-02,2.180703615554892630e-02,2.449200883097781695e-02,2.635827748750898050e-02,2.701956770236653427e-02,2.841319000908520964e-02,2.898540151791841046e-02,3.063096345930446662e-02,3.099835440298773573e-02,3.076522467421689139e-02,3.075519953554122637e-02,2.973927317538950163e-02,2.774914768067238829e-02,2.539790783537826044e-02,2.408384784643891746e-02,2.260627514735875920e-02,2.085422333237133691e-02,2.009947741193087584e-02,1.846022202167294304e-02,1.612305117901885118e-02,1.515907802504653720e-02,1.209711325744387833e-02,9.529892697823590456e-03,8.461325894727384639e-03,7.068553635625422077e-03,5.296151893886710121e-03,3.736098844462441143e-03,2.632038895950208728e-03,1.758060049001285759e-03,8.431330029398573754e-04,3.465518973324231114e-04,7.616005940277680822e-05,3.410844648288070260e-05,1.576865049067993884e-05,4.112066276247421757e-06,3.030333322539500674e-11,1.354793184897462599e-13,7.904401514494830652e-13,3.503658376422506390e-26,5.059752956232604277e-27,8.210383904376441157e-40,0.000000000000000000e+00,0.000000000000000000e+00,0.000000000000000000e+00,0.000000000000000000e+00,0.000000000000000000e+00,0.000000000000000000e+00,0.000000000000000000e+00,0.000000000000000000e+00,0.000000000000000000e+00,0.000000000000000000e+00,0.000000000000000000e+00,0.000000000000000000e+00,0.000000000000000000e+00,0.000000000000000000e+00,0.000000000000000000e+00,0.000000000000000000e+00,0.000000000000000000e+00,nan
nan,0.000000000000000000e+00,0.000000000000000000e+00,0.000000000000000000e+00,0.000000000000000000e+00,0.000000000000000000e+00,0.000000000000000000e+00,0.000000000000000000e+00,0.000000000000000000e+00,0.000000000000000000e+00,0.000000000000000000e+00,0.000000000000000000e+00,0.000000000000000000e+00,0.000000000000000000e+00,0.000000000000000000e+00,0.000000000000000000e+00,0.000000000000000000e+00,0.000000000000000000e+00,0.000000000000000000e+00,0.000000000000000000e+00,0.000000000000000000e+00,1.390170747811757776e-18,4.034077325877194672e-18,1.003847008315564267e-09,2.654801468405949865e-09,1.622838106702592935e-08,9.464122502304025155e-07,1.027077912573841763e-04,7.753522967499605818e-05,3.009776333574147610e-04,7.023961572581384656e-04,9.941535757331670942e-04,1.329651266503297565e-03,1.960660304639333645e-03,2.916932742989058417e-03,3.829159292548298468e-03,4.845252218502106578e-03,6.007264578356392298e-03,7.223966058901814917e-03,8.623993726755339873e-03,9.089332270132890329e-03,1.089719174279603353e-02,1.241355437142029755e-02,1.548833339555215696e-02,1.630718224163174926e-02,1.589069219057553245e-02,1.747216047697551858e-02,1.801635197348376918e-02,1.886426890222674124e-02,1.824923982888893015e-02,1.858126217161051169e-02,1.886946100649987759e-02,1.853798832736777355e-02,1.768654630906559000e-02,1.544902073029179659e-02,1.367866227932239102e-02,1.292225548291968742e-02,1.243916328390444123e-02,1.280036993012466373e-02,1.136615521090747656e-02,1.032185727961264579e-02,8.997179449229978851e-03,7.410966460842327574e-03,5.877735974755916859e-03,4.709890934372712445e-03,3.965343046306404537e-03,2.990968953729716395e-03,2.284646678782320701e-03,1.087201348959632120e-03,5.987622635617379429e-04,2.685868321532104003e-04,3.726915875762665861e-05,1.739680337252913299e-05,5.078458547712342253e-07,4.467255105670674307e-07,8.207178254870555660e-11,9.651495327502854491e-16,1.002186609011417313e-23,2.365980381200654441e-17,3.532975322883457808e-39,0.000000000000000000e+00,0.000000000000000000e+00,0.000000000000000000e+00,0.000000000000000000e+00,0.000000000000000000e+00,0.000000000000000000e+00,0.000000000000000000e+00,0.000000000000000000e+00,0.000000000000000000e+00,0.000000000000000000e+00,0.000000000000000000e+00,0.000000000000000000e+00,0.000000000000000000e+00,0.000000000000000000e+00,0.000000000000000000e+00,0.000000000000000000e+00,0.000000000000000000e+00,0.000000000000000000e+00,0.000000000000000000e+00,nan
