nan,0.000000000000000000e+00,0.000000000000000000e+00,0.000000000000000000e+00,0.000000000000000000e+00,0.000000000000000000e+00,0.000000000000000000e+00,0.000000000000000000e+00,0.000000000000000000e+00,0.000000000000000000e+00,0.000000000000000000e+00,0.000000000000000000e+00,0.000000000000000000e+00,0.000000000000000000e+00,0.000000000000000000e+00,0.000000000000000000e+00,0.000000000000000000e+00,0.000000000000000000e+00,0.000000000000000000e+00,0.000000000000000000e+00,0.000000000000000000e+00,0.000000000000000000e+00,0.000000000000000000e+00,0.000000000000000000e+00,0.000000000000000000e+00,0.000000000000000000e+00,0.000000000000000000e+00,0.000000000000000000e+00,0.000000000000000000e+00,0.000000000000000000e+00,0.000000000000000000e+00,0.000000000000000000e+00,0.000000000000000000e+00,0.000000000000000000e+00,0.000000000000000000e+00,0.000000000000000000e+00,0.000000000000000000e+00,0.000000000000000000e+00,0.000000000000000000e+00,0.000000000000000000e+00,0.000000000000000000e+00,0.000000000000000000e+00,0.000000000000000000e+00,0.000000000000000000e+00,0.000000000000000000e+00,1.558842359826890789e-01,2.507092885911916258e-01,2.482250783232131663e-01,2.512358285712045225e-01,2.538148155652110161e-01,2.576725143034885313e-01,2.602420445414636019e-01,2.625619669807204293e-01,2.658933841498962725e-01,1.598140863500379649e-01,0.000000000000000000e+00,0.000000000000000000e+00,0.000000000000000000e+00,0.000000000000000000e+00,0.000000000000000000e+00,0.000000000000000000e+00,0.000000000000000000e+00,0.000000000000000000e+00,0.000000000000000000e+00,0.000000000000000000e+00,0.000000000000000000e+00,0.000000000000000000e+00,0.000000000000000000e+00,0.000000000000000000e+00,0.000000000000000000e+00,0.000000000000000000e+00,0.000000000000000000e+00,0.000000000000000000e+00,0.000000000000000000e+00,0.000000000000000000e+00,0.000000000000000000e+00,0.000000000000000000e+00,0.000000000000000000e+00,0.000000000000000000e+00,0.000000000000000000e+00,0.000000000000000000e+00,0.000000000000000000e+00,0.000000000000000000e+00,0.000000000000000000e+00,0.000000000000000000e+00,0.000000000000000000e+00,0.000000000000000000e+00,0.000000000000000000e+00,0.000000000000000000e+00,0.000000000000000000e+00,0.000000000000000000e+00,0.000000000000000000e+00,0.000000000000000000e+00,0.000000000000000000e+00,0.000000000000000000e+00,0.000000000000000000e+00,0.000000000000000000e+00,0.000000000000000000e+00,0.000000000000000000e+00,nan
nan,0.000000000000000000e+00,0.000000000000000000e+00,0.000000000000000000e+00,0.000000000000000000e+00,0.000000000000000000e+00,0.000000000000000000e+00,0.000000000000000000e+00,0.000000000000000000e+00,0.000000000000000000e+00,0.000000000000000000e+00,0.000000000000000000e+00,0.000000000000000000e+00,0.000000000000000000e+00,0.000000000000000000e+00,0.000000000000000000e+00,0.000000000000000000e+00,0.000000000000000000e+00,0.000000000000000000e+00,0.000000000000000000e+00,0.000000000000000000e+00,0.000000000000000000e+00,0.000000000000000000e+00,0.000000000000000000e+00,0.000000000000000000e+00,0.000000000000000000e+00,0.000000000000000000e+00,0.000000000000000000e+00,0.000000000000000000e+00,0.000000000000000000e+00,0.000000000000000000e+00,0.000000000000000000e+00,0.000000000000000000e+00,0.000000000000000000e+00,0.000000000000000000e+00,0.000000000000000000e+00,0.000000000000000000e+00,0.000000000000000000e+00,0.000000000000000000e+00,0.000000000000000000e+00,0.000000000000000000e+00,0.000000000000000000e+00,0.000000000000000000e+00,0.000000000000000000e+00,0.000000000000000000e+00,8.742381449018593598e-02,2.079096205080885051e-01,2.458533803915202709e-01,2.479212777731547024e-01,2.521875436925525293e-01,2.553257522608390340e-01,2.585416832446564839e-01,2.651275030246419973e-01,2.734232840644157392e-01,1.168854563300612964e-01,0.000000000000000000e+00,0.000000000000000000e+00,0.000000000000000000e+00,0.000000000000000000e+00,0.000000000000000000e+00,0.000000000000000000e+00,0.000000000000000000e+00,0.000000000000000000e+00,0.000000000000000000e+00,0.000000000000000000e+00,0.000000000000000000e+00,0.000000000000000000e+00,0.000000000000000000e+00,0.000000000000000000e+00,0.000000000000000000e+00,0.000000000000000000e+00,0.000000000000000000e+00,0.000000000000000000e+00,0.000000000000000000e+00,0.000000000000000000e+00,0.000000000000000000e+00,0.000000000000000000e+00,0.000000000000000000e+00,0.000000000000000000e+00,0.000000000000000000e+00,0.000000000000000000e+00,0.000000000000000000e+00,0.000000000000000000e+00,0.000000000000000000e+00,0.000000000000000000e+00,0.000000000000000000e+00,0.000000000000000000e+00,0.000000000000000000e+00,0.000000000000000000e+00,0.000000000000000000e+00,0.000000000000000000e+00,0.000000000000000000e+00,0.000000000000000000e+00,0.000000000000000000e+00,0.000000000000000000e+00,0.000000000000000000e+00,0.000000000000000000e+00,0.000000000000000000e+00,0.000000000000000000e+00,nan
nan,0.000000000000000000e+00,0.000000000000000000e+00,0.000000000000000000e+00,0.000000000000000000e+00,0.000000000000000000e+00,0.000000000000000000e+00,0.000000000000000000e+00,0.000000000000000000e+00,0.000000000000000000e+00,0.000000000000000000e+00,0.000000000000000000e+00,0.000000000000000000e+00,0.000000000000000000e+00,0.000000000000000000e+00,0.000000000000000000e+00,0.000000000000000000e+00,0.000000000000000000e+00,0.000000000000000000e+00,0.000000000000000000e+00,0.000000000000000000e+00,0.000000000000000000e+00,0.000000000000000000e+00,0.000000000000000000e+00,0.000000000000000000e+00,0.000000000000000000e+00,0.000000000000000000e+00,0.000000000000000000e+00,0.000000000000000000e+00,0.000000000000000000e+00,0.000000000000000000e+00,0.000000000000000000e+00,0.000000000000000000e+00,0.000000000000000000e+00,0.000000000000000000e+00,0.000000000000000000e+00,0.000000000000000000e+00,0.000000000000000000e+00,0.000000000000000000e+00,0.000000000000000000e+00,0.000000000000000000e+00,0.000000000000000000e+00,0.000000000000000000e+00,0.000000000000000000e+00,0.000000000000000000e+00,1.367588559801972692e-01,2.432964286175791913e-01,2.484823625698411864e-01,2.497877122569439057e-01,2.519453989875924949e-01,2.536415973255660705e-01,2.525062812124492240e-01,2.504191082678805524e-01,2.435634658020634224e-01,1.294746459083827572e-01,0.000000000000000000e+00,0.000000000000000000e+00,0.000000000000000000e+00,0.000000000000000000e+00,0.000000000000000000e+00,0.000000000000000000e+00,0.000000000000000000e+00,0.000000000000000000e+00,0.000000000000000000e+00,0.000000000000000000e+00,0.000000000000000000e+00,0.000000000000000000e+00,0.000000000000000000e+00,0.000000000000000000e+00,0.000000000000000000e+00,0.000000000000000000e+00,0.000000000000000000e+00,0.000000000000000000e+00,0.000000000000000000e+00,0.000000000000000000e+00,0.000000000000000000e+00,0.000000000000000000e+00,0.000000000000000000e+00,0.000000000000000000e+00,0.000000000000000000e+00,0.000000000000000000e+00,0.000000000000000000e+00,0.000000000000000000e+00,0.000000000000000000e+00,0.000000000000000000e+00,0.000000000000000000e+00,0.000000000000000000e+00,0.000000000000000000e+00,0.000000000000000000e+00,0.000000000000000000e+00,0.000000000000000000e+00,0.000000000000000000e+00,0.000000000000000000e+00,0.000000000000000000e+00,0.000000000000000000e+00,0.000000000000000000e+00,0.000000000000000000e+00,0.000000000000000000e+00,0.000000000000000000e+00,nan
nan,0.000000000000000000e+00,0.000000000000000000e+00,0.000000000000000000e+00,0.000000000000000000e+00,0.000000000000000000e+00,0.000000000000000000e+00,0.000000000000000000e+00,0.000000000000000000e+00,0.000000000000000000e+00,0.000000000000000000e+00,0.000000000000000000e+00,0.000000000000000000e+00,0.000000000000000000e+00,0.000000000000000000e+00,0.000000000000000000e+00,0.000000000000000000e+00,2.497927198737032867e-02,2.145410882631047442e-02,0.000000000000000000e+00,0.000000000000000000e+00,0.000000000000000000e+00,0.000000000000000000e+00,0.000000000000000000e+00,0.000000000000000000e+00,0.000000000000000000e+00,0.000000000000000000e+00,0.000000000000000000e+00,0.000000000000000000e+00,0.000000000000000000e+00,0.000000000000000000e+00,0.000000000000000000e+00,2.234499073188998819e-02,0.000000000000000000e+00,0.000000000000000000e+00,0.000000000000000000e+00,0.000000000000000000e+00,0.000000000000000000e+00,0.000000000000000000e+00,0.000000000000000000e+00,0.000000000000000000e+00,0.000000000000000000e+00,0.000000000000000000e+00,0.000000000000000000e+00,0.000000000000000000e+00,1.269764537492732437e-01,2.466466704457102033e-01,2.518054685592852615e-01,2.536028487952651789e-01,2.549878672494654830e-01,2.545541126178876290e-01,2.510980272791736301e-01,2.479695619820012631e-01,2.281090721939444399e-01,2.169264526384993563e-01,0.000000000000000000e+00,3.951778265836886767e-02,3.888726818820219255e-02,0.000000000000000000e+00,0.000000000000000000e+00,0.000000000000000000e+00,0.000000000000000000e+00,0.000000000000000000e+00,0.000000000000000000e+00,0.000000000000000000e+00,0.000000000000000000e+00,0.000000000000000000e+00,0.000000000000000000e+00,0.000000000000000000e+00,0.000000000000000000e+00,0.000000000000000000e+00,0.000000000000000000e+00,2.285560657776418425e-02,0.000000000000000000e+00,0.000000000000000000e+00,2.171264879546054918e-02,0.000000000000000000e+00,0.000000000000000000e+00,0.000000000000000000e+00,0.000000000000000000e+00,0.000000000000000000e+00,0.000000000000000000e+00,3.296320705983734299e-03,0.000000000000000000e+00,0.000000000000000000e+00,0.000000000000000000e+00,0.000000000000000000e+00,0.000000000000000000e+00,2.879290231903179013e-03,0.000000000000000000e+00,1.153937808683141997e-02,0.000000000000000000e+00,0.000000000000000000e+00,7.969863699380439620e-03,0.000000000000000000e+00,0.000000000000000000e+00,0.000000000000000000e+00,0.000000000000000000e+00,0.000000000000000000e+00,nan
nan,1.194668476111652305e-02,2.012253723991063240e-02,6.756986863848333559e-03,6.319559939384694798e-03,1.257810421454931375e-02,1.888935614453307599e-02,1.744267832000517479e-02,3.895069784855688388e-02,5.420424858542158275e-02,1.428343164168321099e-02,5.625762063609194424e-02,9.456742858400223051e-03,7.773732852599334053e-02,5.366127796277333356e-02,3.816552289909192625e-02,6.071545157536780563e-02,7.711470105909973283e-02,9.504971152410367219e-02,6.338480458184739263e-02,4.471167338976415884e-02,6.061279383804052401e-02,1.100518244920079512e-02,6.271377426825446022e-02,5.448195186414223068e-02,6.174915584191022905e-02,5.081478175446126760e-02,1.015459741155896739e-01,1.093429279136677867e-01,7.242509967513074964e-02,6.943972705124304423e-02,1.163286369837308876e-01,1.087978138279922236e-01,1.815704964378037772e-02,9.797615622869748631e-02,4.982282303117036709e-02,3.990771023760907033e-02,6.746796282910626566e-03,4.510061805034933091e-02,2.559125210934174929e-02,7.282559413574035689e-02,8.019623912309796487e-02,3.293111559537853505e-02,1.081731551954851628e-01,1.342930431081631737e-01,2.110066407477972916e-01,2.402328894400924397e-01,2.507713019314128378e-01,2.520133825719087506e-01,2.566731785819849621e-01,2.549570252479242960e-01,2.508130236389073398e-01,2.439418151478523200e-01,2.333399772754182200e-01,2.258967449002083350e-01,1.345631886647606912e-01,1.811543101474726025e-01,4.111486980370879230e-02,9.196780357063626121e-02,1.160545452072766215e-01,1.473613540011586565e-01,1.349611358283203943e-01,7.714293381177740605e-02,2.267744592913820828e-02,2.187523864373314142e-02,3.431686587350253614e-02,9.660812978940026829e-02,7.645538634061437022e-02,2.123280726952190070e-02,6.909221850926600128e-02,8.559296956728931760e-02,5.017400740102085505e-02,8.880015144764696888e-02,5.142801899198097548e-02,8.768952079384252640e-02,5.371983678297506670e-02,3.718622147602644590e-02,4.073408008985597573e-02,7.198810366819505258e-02,8.703807225049106991e-03,7.690692108396290916e-02,2.897418580446302350e-02,5.790690701784073635e-02,2.226697392114115187e-02,5.671890693273579087e-02,5.874101642911373766e-02,4.587135581731428824e-02,6.717055773037083899e-02,5.309203547207012180e-02,6.279783934165394932e-02,5.803732787409317251e-02,4.570243707142256778e-02,2.416315416158013474e-03,4.591102546396197415e-02,2.076226542603275965e-02,3.609937634193882694e-02,3.745943406186984931e-02,1.251785423570262075e-02,3.208881653991212547e-03,nan
nan,2.029429176562251233e-02,3.142122945149945085e-02,3.461849316281058464e-02,5.394112842270881725e-02,6.065114867930064546e-02,6.425065870735406637e-02,6.817482018527729060e-02,7.157623280045580239e-02,7.460876300517710336e-02,6.713986672350888418e-02,7.995442905316513249e-02,8.230414376962677525e-02,8.992520163471391659e-02,9.226201522379236242e-02,9.447215291907459789e-02,9.683967325349335242e-02,9.890456849608442180e-02,1.006106428784449280e-01,1.022959798867740661e-01,1.043406831817628166e-01,1.081636527948983684e-01,1.115202620598928496e-01,1.155360548420928668e-01,1.187612773079138456e-01,1.213088718603153038e-01,1.235534151632346478e-01,1.263565923087278942e-01,1.286141018550230886e-01,1.310268173980674022e-01,1.338843387804417862e-01,1.366621282921294256e-01,1.387746544010835525e-01,1.440938162700313718e-01,1.475121109973810962e-01,1.507056287451920551e-01,1.258586181943907589e-01,1.603285931559840505e-01,1.509248516043767696e-01,1.699556132810900455e-01,1.747116422271994540e-01,1.706438665618434936e-01,1.543813281079974564e-01,1.988353287006693060e-01,2.081287808964569219e-01,2.193909573630635768e-01,2.322266416120744581e-01,2.387615642109472414e-01,2.426733221571135135e-01,2.444010483214274221e-01,2.440925632818670143e-01,2.403634514641962427e-01,2.352359999389869727e-01,2.286248356353257627e-01,2.210103472878391095e-01,2.116870678722887200e-01,1.991035822902640362e-01,1.102715088951366773e-01,1.746069206019201236e-01,1.714766016506825419e-01,1.669389482734690289e-01,1.631610221463921373e-01,1.590789421207702836e-01,1.531376041262644538e-01,1.502138079939095427e-01,1.467270772272223911e-01,1.424018264720878224e-01,1.389842793102887275e-01,1.364621448212261223e-01,1.294440881460800219e-01,1.302657761059527464e-01,1.282564512939728396e-01,1.111706253084421281e-01,1.211537558292696826e-01,1.187457023364904274e-01,1.134863913721046169e-01,1.122602122282698872e-01,1.101927798918273388e-01,1.087244153821839421e-01,9.570947082706057762e-02,1.017282799224091816e-01,9.899380339570620913e-02,8.585472870702669235e-02,9.307117512154880479e-02,9.021704176139624942e-02,8.743637224105080263e-02,8.447911769660655656e-02,8.198612227355228654e-02,7.921961983387759698e-02,7.686714409684905491e-02,7.447067330724961576e-02,7.229831618733947862e-02,6.328864346664607454e-02,6.128419912352859461e-02,5.636376492877862021e-02,5.215652520388454338e-02,4.811681111588114734e-02,3.833809094590449884e-02,1.950642086113555176e-02,nan
nan,2.052402396436861856e-02,3.472499360253404610e-02,4.526050729918233706e-02,5.474351257635509671e-02,6.018425482724230891e-02,6.414417630614818733e-02,6.817605848089983156e-02,7.165891991114742288e-02,7.448626189003383635e-02,7.740409298190391307e-02,8.072063817609671788e-02,8.454660576331066157e-02,8.875580951182185374e-02,9.171048914121417150e-02,9.410097798556933679e-02,9.636948532800548861e-02,9.855756835542867078e-02,1.004912664172032399e-01,1.026356180755768899e-01,1.050826944916383177e-01,1.079799129282977554e-01,1.116572136171568030e-01,1.147695875893907369e-01,1.178649267262365241e-01,1.204904230637934143e-01,1.231124104341666803e-01,1.258811207097790541e-01,1.283652900518036377e-01,1.310732014263325251e-01,1.337822056525395653e-01,1.364996636791326323e-01,1.395700834156155257e-01,1.431866825218144623e-01,1.470885385701926895e-01,1.505431084987225165e-01,1.548434900151992033e-01,1.594847601420125160e-01,1.641862503929688577e-01,1.688193345366236220e-01,1.740207576090452568e-01,1.804272415321494516e-01,1.877710970277761959e-01,1.956175988494177342e-01,2.032702547173892149e-01,2.122546168103227604e-01,2.193669297687134423e-01,2.255579359642706505e-01,2.296588771089060343e-01,2.314434530059818196e-01,2.313570042291902551e-01,2.286052912497629763e-01,2.246734910359119985e-01,2.189568445536262398e-01,2.126586842661854493e-01,2.044575551823725190e-01,1.938228902764480566e-01,1.847769035281393302e-01,1.753503448936769016e-01,1.704846935975765920e-01,1.663034754125631287e-01,1.627040300490593394e-01,1.580402843433676707e-01,1.534084625160507254e-01,1.496043415712871860e-01,1.460277539243333700e-01,1.424148860097549374e-01,1.390813460841250626e-01,1.358621330934858262e-01,1.328666214031122006e-01,1.301853173112660911e-01,1.270046533846220238e-01,1.238968678987270866e-01,1.209833295381814999e-01,1.183929551548996567e-01,1.153312684602166988e-01,1.126087327593812276e-01,1.102194138933913076e-01,1.079658953096887947e-01,1.054367103435106118e-01,1.021150922600287114e-01,9.899577729005748505e-02,9.611081904793035424e-02,9.320387960171686026e-02,9.022860652686393035e-02,8.778005977248030944e-02,8.465720986512154100e-02,8.168133068710251021e-02,7.922272686217989024e-02,7.676736096583358648e-02,7.430512364737254516e-02,7.134262844260150227e-02,6.716106175459077288e-02,6.230650532331893920e-02,5.725512222380756827e-02,5.253073375443208931e-02,4.732578828314423086e-02,3.889967340654099104e-02,2.201823608535870974e-02,nan
nan,2.129601752316743341e-02,3.608065578751382119e-02,4.698953494750354037e-02,5.497853038629541000e-02,5.992692780881335446e-02,6.420058793390792662e-02,6.801465502806777752e-02,7.147281739158305169e-02,7.461059656117868810e-02,7.773844895319613479e-02,8.098319285294645897e-02,8.481301559074232166e-02,8.812377060104570337e-02,9.100819518598174396e-02,9.362161973036089990e-02,9.600005207024955856e-02,9.831256929641823961e-02,1.005158214743507861e-01,1.027890943913553068e-01,1.054075978402838343e-01,1.083007450232194302e-01,1.114150973440071746e-01,1.143624426961087764e-01,1.173210005242872472e-01,1.200153322069694994e-01,1.226850148086236630e-01,1.253724645665455772e-01,1.280549698043514928e-01,1.307367984000950001e-01,1.334893359656299239e-01,1.362817532088170247e-01,1.393298415587148620e-01,1.431147278334692907e-01,1.464006611909416389e-01,1.501010091673765090e-01,1.541539086235505784e-01,1.584621729139112922e-01,1.630235652450166550e-01,1.675213979324275126e-01,1.725159803216091969e-01,1.781662112035037049e-01,1.845027443783099630e-01,1.913803763092092325e-01,1.977911234189541068e-01,2.045473861399514370e-01,2.111505788033885556e-01,2.155156364284080694e-01,2.185577973384107142e-01,2.200690623510203336e-01,2.197178732557329150e-01,2.179754212633728261e-01,2.147554679009853196e-01,2.104459262114695139e-01,2.046043851038803763e-01,1.976697918537571597e-01,1.900814819515607990e-01,1.822087885409577612e-01,1.749160749114305746e-01,1.698384841955295765e-01,1.651329195296172836e-01,1.611060066190868334e-01,1.569031843782156543e-01,1.528878674126366022e-01,1.490554091593135622e-01,1.455554992788036239e-01,1.420752345357713664e-01,1.386513585115261016e-01,1.355255319939683289e-01,1.325744099288532762e-01,1.297973808019236008e-01,1.266458760305862741e-01,1.237681074260106873e-01,1.208290129274364189e-01,1.180000319616646837e-01,1.151402156611813499e-01,1.124180781667812878e-01,1.100078731029944523e-01,1.075222546542324575e-01,1.049828306523993005e-01,1.020398850661879825e-01,9.901653897995094100e-02,9.617656672340832436e-02,9.330029937261843931e-02,9.035183528651995200e-02,8.762227281524252731e-02,8.478506695170869023e-02,8.189206869631991681e-02,7.917651923703014627e-02,7.651030308550972603e-02,7.372955373632149312e-02,7.054635483000909479e-02,6.680302770092250153e-02,6.235149088494056080e-02,5.785674027608538050e-02,5.288579993407945684e-02,4.681465576425855590e-02,3.760224449315605066e-02,2.251341971823385413e-02,nan
nan,2.258229800328542466e-02,3.757238113761496995e-02,4.782879632032510653e-02,5.467695957479141999e-02,5.984799332414533768e-02,6.407648523785522410e-02,6.781015579507512769e-02,7.130456050996528128e-02,7.459510232190363910e-02,7.777020612601309724e-02,8.106414229420225159e-02,8.441941505069559815e-02,8.758474367592875010e-02,9.049671295643418878e-02,9.312978358087291297e-02,9.562817529386238857e-02,9.800770279962289777e-02,1.003530570619451112e-01,1.027601459402632256e-01,1.053605420738368270e-01,1.081446752545380530e-01,1.110731969052738549e-01,1.139695030013376242e-01,1.167554619357812629e-01,1.194906932096091307e-01,1.221771594786182913e-01,1.248599549387414687e-01,1.275269399400589254e-01,1.302570789577780219e-01,1.330390112216017773e-01,1.358802126545700650e-01,1.390029755837594583e-01,1.423096905488622499e-01,1.457819829228276798e-01,1.493353110668597661e-01,1.531800295503379372e-01,1.572022920662352052e-01,1.615124065773787532e-01,1.659842300880794430e-01,1.704768497155040030e-01,1.756254265371081091e-01,1.810871408191436771e-01,1.866025715511813454e-01,1.923838445927328888e-01,1.976796631842822616e-01,2.026887271251867073e-01,2.062680162360888136e-01,2.089062515432651701e-01,2.100877516879536555e-01,2.100110688535352932e-01,2.083805203939392836e-01,2.061562408859800577e-01,2.020303447564020805e-01,1.977108898130376380e-01,1.916467459158284481e-01,1.858771865218551145e-01,1.790650611735997433e-01,1.733818867071235392e-01,1.683290471350417372e-01,1.637554749021812306e-01,1.596898233769277198e-01,1.558438730393759963e-01,1.519387243430128376e-01,1.482067090339734827e-01,1.447460702317951431e-01,1.413902458094037917e-01,1.380969347018484172e-01,1.350446245772095322e-01,1.320659115712770615e-01,1.291653076107498188e-01,1.262224232888994879e-01,1.233918061975290692e-01,1.205591760635162379e-01,1.177378104637911566e-01,1.149272780525876780e-01,1.122709358962407644e-01,1.096831007635279409e-01,1.071403983390837172e-01,1.045075488157199417e-01,1.016788565658959947e-01,9.884619191398413829e-02,9.602987151369987706e-02,9.313133948903692949e-02,9.033023141490081898e-02,8.749890306180761745e-02,8.471137562255114106e-02,8.187636215131606499e-02,7.906083792679610700e-02,7.628340110144557484e-02,7.335524217896426113e-02,7.009813934214469133e-02,6.645836812317909570e-02,6.236794171758249655e-02,5.782821146443420379e-02,5.278486066425914364e-02,4.636491576031334660e-02,3.782527090430090611e-02,2.341043072751550908e-02,nan
nan,2.305451431716896982e-02,3.766341093853922684e-02,4.778802122457870283e-02,5.460876624752925707e-02,5.967279576161753363e-02,6.376594022083600932e-02,6.760402212252177023e-02,7.107780845478314791e-02,7.441962941378851837e-02,7.766196400057338856e-02,8.088936871391527728e-02,8.409007077092039983e-02,8.710448988709104667e-02,8.999877599992389676e-02,9.266383992995910757e-02,9.520993665835104924e-02,9.765975111952268639e-02,1.000981156214294648e-01,1.025844131550670002e-01,1.051882570756917934e-01,1.079154841692476080e-01,1.106461147998955979e-01,1.134477785704817027e-01,1.161991338590497441e-01,1.188836155161997060e-01,1.215848621362410342e-01,1.242533125204354910e-01,1.269214266117754675e-01,1.296139134754534517e-01,1.323658435072657402e-01,1.353137411048683236e-01,1.382959214326648367e-01,1.414707297446499423e-01,1.448297617901183332e-01,1.482434416936214416e-01,1.519028677018610385e-01,1.556600738438376763e-01,1.595083181918736104e-01,1.638832463405863193e-01,1.682404760701928237e-01,1.726303773969128930e-01,1.774556084848380177e-01,1.823466053396570474e-01,1.870145432829664889e-01,1.913669080544727064e-01,1.951899285962234443e-01,1.984920801681747948e-01,2.004167777426048569e-01,2.013122346996953083e-01,2.015778415432840920e-01,2.000717084762425046e-01,1.979162134835340814e-01,1.945825487411051435e-01,1.906719889424195458e-01,1.861098468649129423e-01,1.810119580286304042e-01,1.756347132736229000e-01,1.708015093629452752e-01,1.661570637146262963e-01,1.620035807410736550e-01,1.581423633168106413e-01,1.543048602552503645e-01,1.507023115822890835e-01,1.471535883751842189e-01,1.437802804223726749e-01,1.405165962501915833e-01,1.373436904046712037e-01,1.343200474323670568e-01,1.313696429774574015e-01,1.284802968240762733e-01,1.256528539261407285e-01,1.228123769598457593e-01,1.200300509909261182e-01,1.172553884841125854e-01,1.145457620432362988e-01,1.119094393479302951e-01,1.093099040967832614e-01,1.067109306718657669e-01,1.040683736109501989e-01,1.013344538607985901e-01,9.856606119300372060e-02,9.575715622948161032e-02,9.295741754541013424e-02,9.013850494849300066e-02,8.735649926242791685e-02,8.453491918453592824e-02,8.171569342565407346e-02,7.885320092228091660e-02,7.596958768962294717e-02,7.293268142475765881e-02,6.970594395049471703e-02,6.609024063126955895e-02,6.211222712559518605e-02,5.763141294057823327e-02,5.235214476104799175e-02,4.613251653076436143e-02,3.704370329343916607e-02,2.191158633136779804e-02,nan
nan,2.315397668659583200e-02,3.642259947109952739e-02,4.769174487422171010e-02,5.430351839001904685e-02,5.930644321341603520e-02,6.355376160931519580e-02,6.723815947977695995e-02,7.082044011951654783e-02,7.415961216698578606e-02,7.735593160877074492e-02,8.052242820612971752e-02,8.365933423001976899e-02,8.661206314854105748e-02,8.947498621657767881e-02,9.215911381984406847e-02,9.472182032383050232e-02,9.723522184607312491e-02,9.970732808088669796e-02,1.022502454622508244e-01,1.048398852609525173e-01,1.074819653132796649e-01,1.101510769900539283e-01,1.128982375933041959e-01,1.155304090709823595e-01,1.182362052754030168e-01,1.208929518672750003e-01,1.235325270399691144e-01,1.261581260133799176e-01,1.288548772195709791e-01,1.315779734884927610e-01,1.344523805269370875e-01,1.373923676770250624e-01,1.405082286034813888e-01,1.436393600029275963e-01,1.469743750768790491e-01,1.504019957020274745e-01,1.540100782478978636e-01,1.576752607015944885e-01,1.615054959595942363e-01,1.655035875933116851e-01,1.694835122930630766e-01,1.736515047928692546e-01,1.777517493738177967e-01,1.815957966951725622e-01,1.852154200908390225e-01,1.885366228897532026e-01,1.910371952682421715e-01,1.929401100413939418e-01,1.937624102980688157e-01,1.936680228649254321e-01,1.924936782234033250e-01,1.906217871499223671e-01,1.882203895733015053e-01,1.846382649755129446e-01,1.809790088186387647e-01,1.767296688686803563e-01,1.723701387673951535e-01,1.681226042291910916e-01,1.638605734734178421e-01,1.599419114356157856e-01,1.563372409803236440e-01,1.527413484530804333e-01,1.492644726346962214e-01,1.458579432081205662e-01,1.426286756616486073e-01,1.394670959320435388e-01,1.364447651125427208e-01,1.334465050819056697e-01,1.305842645860399998e-01,1.277383901605884109e-01,1.249633616675179387e-01,1.221990642110884762e-01,1.194254804876569709e-01,1.167438913014847979e-01,1.140565097815498946e-01,1.114274348690277305e-01,1.088407134854870312e-01,1.062262776135308451e-01,1.035859333017287165e-01,1.009019193097776962e-01,9.817855720129206598e-02,9.545135848264256484e-02,9.263918051293930367e-02,8.987658760590948315e-02,8.708529870889383795e-02,8.427857906636418428e-02,8.142248755143606520e-02,7.854958635999667593e-02,7.559075673606735490e-02,7.252995331888645314e-02,6.925557018896792705e-02,6.568959160823024945e-02,6.172698759877350005e-02,5.728339616547182406e-02,5.225054389415855621e-02,4.564188872845720973e-02,3.565651236697606891e-02,2.214425939087864836e-02,nan
nan,2.159551765072431975e-02,3.617678263023087898e-02,4.694579559518771705e-02,5.362075006304597991e-02,5.865765782448975618e-02,6.312499238436289350e-02,6.689354786666866504e-02,7.038352380921847340e-02,7.374924339664412631e-02,7.699439356999372708e-02,8.011160103086412132e-02,8.314583625449104010e-02,8.609363352329144070e-02,8.891255270256387400e-02,9.160523703466007250e-02,9.420640758266328463e-02,9.674979203612897594e-02,9.927349871420110272e-02,1.017657400826182668e-01,1.043632183148509029e-01,1.069723386518803415e-01,1.096169478172283746e-01,1.122223951665798913e-01,1.148583376274554813e-01,1.174888000320453152e-01,1.201052998365372826e-01,1.227122451915210744e-01,1.253488355305676649e-01,1.279945975214935028e-01,1.307150149055680277e-01,1.334759706807126522e-01,1.363245083489906528e-01,1.392955196395373185e-01,1.423388673754291678e-01,1.454916186778517639e-01,1.487442487779390143e-01,1.521267037726490301e-01,1.555193628914900150e-01,1.591338957297505075e-01,1.626300298569883229e-01,1.662716005389058282e-01,1.699829893693431959e-01,1.733708580070963956e-01,1.768444385315706691e-01,1.800139013284971501e-01,1.825279186458435288e-01,1.847318130404221881e-01,1.858407607323647737e-01,1.864749945088206573e-01,1.866763514393162682e-01,1.860305571029679528e-01,1.842163646729489124e-01,1.817654701667468231e-01,1.791612883774241216e-01,1.761129917079853058e-01,1.723147012984072857e-01,1.687916752323779801e-01,1.649948182271380737e-01,1.612176268208311558e-01,1.576442435935894171e-01,1.542786826116354093e-01,1.509448980059887035e-01,1.475908760150343724e-01,1.444370769432820056e-01,1.413035089747632644e-01,1.382942298113808699e-01,1.353479968602327166e-01,1.324915775924296601e-01,1.296313286911635887e-01,1.268878331391289915e-01,1.241495468945185143e-01,1.214413414431073923e-01,1.187462189858789069e-01,1.160671626588144767e-01,1.134518170179618923e-01,1.108405918854748207e-01,1.082551827329902711e-01,1.056767523999360553e-01,1.030403837360806263e-01,1.003763972362897022e-01,9.771372676174575056e-02,9.501019356642693980e-02,9.225719632435942785e-02,8.950790181772952381e-02,8.671318405621149250e-02,8.391589871347143736e-02,8.106597589007363824e-02,7.815389870097581848e-02,7.515549992040659877e-02,7.205563425942862477e-02,6.877288636099776475e-02,6.506890308369060738e-02,6.128210834731920298e-02,5.691940137497845248e-02,5.165894199235647466e-02,4.505117145377667692e-02,3.458938067024970586e-02,2.098296188487911579e-02,nan
nan,2.107160642862129091e-02,3.551495969860494345e-02,4.643796854640823424e-02,5.331275169613662601e-02,5.848969751427915420e-02,6.270910479096591938e-02,6.641700738384649638e-02,6.989406403903442033e-02,7.322793994281341645e-02,7.649030351019012186e-02,7.957193948781957071e-02,8.259614713941781927e-02,8.550282988096205572e-02,8.829192803930503708e-02,9.099853067880267488e-02,9.360032649534161253e-02,9.617368498657644094e-02,9.869814278439051347e-02,1.012294396096372479e-01,1.037750529693109991e-01,1.063419171387529477e-01,1.089282389038741250e-01,1.115119535144466351e-01,1.140922698664416923e-01,1.166678543078944613e-01,1.192408150183106308e-01,1.218003142178077647e-01,1.243830603163520176e-01,1.270084774950955564e-01,1.296211884532491587e-01,1.323461189538943927e-01,1.351287761976963375e-01,1.379764214312986792e-01,1.409199001807301954e-01,1.438920378816357926e-01,1.469707438274168165e-01,1.500714764137470736e-01,1.532964136806899413e-01,1.564696696632396078e-01,1.598223998095869847e-01,1.629502485447640869e-01,1.662218642644874844e-01,1.692618642191530964e-01,1.722315260540000503e-01,1.747595392702713801e-01,1.768092913028375124e-01,1.787756697821797358e-01,1.798588839930136685e-01,1.804425635706381481e-01,1.805593309441168026e-01,1.797565090082192119e-01,1.782931484518727183e-01,1.765680283195522060e-01,1.742802685416977859e-01,1.714979768443658792e-01,1.683402209497949498e-01,1.652265239417364806e-01,1.617482666218252596e-01,1.585444710330018436e-01,1.552966154010786970e-01,1.521530466589477160e-01,1.489723784477937352e-01,1.459073144302595604e-01,1.428367359039434958e-01,1.399013950288487129e-01,1.370168262545100601e-01,1.341473143455990114e-01,1.313582483373849086e-01,1.286377632524573211e-01,1.259124194012400388e-01,1.232331135136580380e-01,1.205870104254838093e-01,1.179399520475940544e-01,1.153300936716826625e-01,1.127178775176700953e-01,1.101847422327268539e-01,1.076097790322719377e-01,1.050181240700109597e-01,1.024355153606483493e-01,9.981319843773843459e-02,9.716778683080710965e-02,9.448365384199866601e-02,9.177918951984193052e-02,8.902540741103508182e-02,8.626120276193766090e-02,8.346809493000698077e-02,8.059863610543223367e-02,7.768899572276222187e-02,7.465617727958857863e-02,7.149972506754778689e-02,6.817391509597639510e-02,6.463717679735929422e-02,6.072069130907896406e-02,5.638579321218650797e-02,5.113652781015272375e-02,4.428764744449455171e-02,3.413216262086794794e-02,2.044831241155350282e-02,nan
nan,2.185681708438749066e-02,3.697162564098278870e-02,4.615269285244785746e-02,5.260256647990824153e-02,5.799568840363889671e-02,6.227329178494434014e-02,6.587040105571509430e-02,6.935701916589989691e-02,7.263439660799161923e-02,7.587594711266763825e-02,7.899919736141997051e-02,8.195673322032848152e-02,8.484136777718290223e-02,8.762465858348761349e-02,9.030902319628630881e-02,9.294009804086035553e-02,9.551568404444862881e-02,9.804785247299674378e-02,1.005657948718597233e-01,1.030790408653387141e-01,1.056356388319052708e-01,1.081602000425215537e-01,1.106983305686825569e-01,1.132268191210548808e-01,1.157555808905740696e-01,1.182754912766527111e-01,1.208123400297643063e-01,1.233227272009069786e-01,1.259010594613829415e-01,1.284974172261390546e-01,1.311190894464016321e-01,1.337969714274545030e-01,1.365484908003136155e-01,1.393049416983963285e-01,1.421268768158274742e-01,1.450593645804243714e-01,1.479443187514619118e-01,1.508332037980809892e-01,1.538232191541351046e-01,1.568128549316671894e-01,1.597414733575758250e-01,1.626452593075855546e-01,1.654168895429751207e-01,1.677412596354916352e-01,1.699862476913744092e-01,1.717895017858558360e-01,1.732825160331015191e-01,1.743082045902455413e-01,1.747871615601336304e-01,1.747134543827344733e-01,1.742557121471111914e-01,1.730036372118241017e-01,1.713989873930215346e-01,1.695056932675988448e-01,1.671580132017977394e-01,1.644919470372640524e-01,1.616955270899307628e-01,1.587544449021660309e-01,1.558434025887134033e-01,1.528674569243609338e-01,1.498991993556414715e-01,1.469304149939648363e-01,1.440428520013094238e-01,1.411339165934647477e-01,1.383503457155619842e-01,1.355654195031834597e-01,1.328526119653865023e-01,1.301439322142372290e-01,1.274776909265646907e-01,1.248515729057005363e-01,1.222334294740985150e-01,1.196144543350911860e-01,1.170556878381145416e-01,1.145043916526228139e-01,1.119561035155625245e-01,1.094157754227055301e-01,1.068537635331952840e-01,1.043079675330094575e-01,1.017424354780306073e-01,9.914259532389854690e-02,9.652412258852473281e-02,9.387991399714351592e-02,9.119026226276007174e-02,8.846576468725211861e-02,8.570440699919086580e-02,8.290952014637377465e-02,8.005862460796819846e-02,7.711083832260354209e-02,7.407768622187016483e-02,7.092276546625675415e-02,6.759109356591241902e-02,6.392641377447601247e-02,6.007027215750807003e-02,5.572318848084653609e-02,5.060545341322039703e-02,4.437776560865391157e-02,3.452378247691119395e-02,2.102956515997507145e-02,nan
nan,2.182849696835803543e-02,3.592588730337724356e-02,4.572595396290569242e-02,5.204804870763830860e-02,5.726086793611112613e-02,6.161508252130868529e-02,6.531065515206860295e-02,6.875385066347754204e-02,7.197299229144188404e-02,7.519400337825504765e-02,7.831272691635438044e-02,8.128054038446336227e-02,8.412034911967837536e-02,8.688676663954590651e-02,8.958936778465123596e-02,9.220375098296326732e-02,9.477381236514668961e-02,9.730636257995321781e-02,9.979696630824580472e-02,1.023214795189495013e-01,1.048064804744918699e-01,1.073190116518910886e-01,1.098142425102424102e-01,1.122834019355690438e-01,1.147753077405861133e-01,1.172527613847501177e-01,1.197257133776317012e-01,1.222141655833684781e-01,1.247004637370160707e-01,1.272183652602877080e-01,1.297751434677052729e-01,1.323817847982107498e-01,1.349748799541510280e-01,1.376337764437841615e-01,1.403014799214647168e-01,1.430062107446426201e-01,1.457399274477718387e-01,1.484684809689509888e-01,1.511864125085002342e-01,1.539267032639312638e-01,1.565219990078033918e-01,1.590463140821284649e-01,1.614313960185635721e-01,1.635325552869437149e-01,1.655757432354863501e-01,1.671207978180751508e-01,1.683993008731387853e-01,1.691453918798109801e-01,1.694303446328072060e-01,1.695349135195252654e-01,1.690735349394606457e-01,1.679938679478703845e-01,1.666889571940423642e-01,1.650122830635354088e-01,1.629936381604890072e-01,1.606635362678022205e-01,1.582463104296796819e-01,1.556374562061266786e-01,1.529248863852463725e-01,1.502738377296354289e-01,1.474860876358566886e-01,1.448201375848066075e-01,1.420840272598087040e-01,1.394023250762122523e-01,1.366960586608659267e-01,1.340423099842829868e-01,1.314190832212543125e-01,1.288254596969957977e-01,1.262422280737408586e-01,1.236795219997897238e-01,1.211287939728259849e-01,1.185897599358101129e-01,1.160849727795116304e-01,1.135658006679256676e-01,1.110594624222734639e-01,1.085308978900618171e-01,1.060386490110031832e-01,1.035152859890483695e-01,1.009706733909028070e-01,9.840741251803120093e-02,9.582153754452482630e-02,9.318957985477695216e-02,9.052637628623351473e-02,8.782093650700983911e-02,8.508151647771618198e-02,8.227823267978882915e-02,7.943979030665992980e-02,7.648470700756132556e-02,7.339790424411338221e-02,7.021699902822421679e-02,6.685906408295162751e-02,6.326603919141646215e-02,5.935201681754546932e-02,5.494859392562055633e-02,5.000296326833711391e-02,4.305834814627247653e-02,3.426711522488937872e-02,1.999677520540282458e-02,nan
nan,2.156050150604214150e-02,3.669709340215385196e-02,4.512392780981473728e-02,5.125057182822243679e-02,5.644459780337578170e-02,6.075519650267910410e-02,6.443271470481855279e-02,6.792180814096240860e-02,7.124729071428728688e-02,7.447350237708427745e-02,7.751724940914357653e-02,8.050388412514399017e-02,8.334468555128231315e-02,8.608865516463080902e-02,8.877973096960035948e-02,9.140931255010975587e-02,9.395817864595534807e-02,9.648092706647579120e-02,9.899017656617012384e-02,1.014643522604900677e-01,1.039316761974719144e-01,1.064030192705912176e-01,1.088566165539591873e-01,1.112761465440482989e-01,1.137229350336626810e-01,1.161452620852897744e-01,1.185726281112368663e-01,1.210072915511716807e-01,1.234326161459846083e-01,1.258605889248941290e-01,1.283322294454670998e-01,1.308258747710091541e-01,1.332730876600579373e-01,1.358676295423659197e-01,1.383833328227792592e-01,1.409498925493198052e-01,1.434824911075522347e-01,1.460433059477365958e-01,1.484913100339634306e-01,1.509151981263524567e-01,1.533467120440565323e-01,1.556217873741921887e-01,1.576932931534388849e-01,1.595812442079234950e-01,1.613230732619750918e-01,1.625998332494103249e-01,1.637291917802075614e-01,1.643352258608251626e-01,1.648081197012833121e-01,1.647343813150977665e-01,1.641872227400814066e-01,1.634209346455658407e-01,1.623263204197999965e-01,1.608230421403722965e-01,1.589896471254886312e-01,1.570539116160827031e-01,1.548394129609514669e-01,1.526002848534999123e-01,1.501307671818901679e-01,1.476787317686369394e-01,1.451280546469384813e-01,1.426222392322764043e-01,1.400287747761011226e-01,1.374050342868790575e-01,1.349468704092852134e-01,1.324274511675880006e-01,1.299091186197142977e-01,1.274061536426611685e-01,1.248601868156640482e-01,1.224063437808895205e-01,1.199213067833290181e-01,1.174612550567338126e-01,1.150061173709166773e-01,1.125461244930506671e-01,1.100826511972221727e-01,1.076020213996997099e-01,1.051308394697210158e-01,1.026384442172588174e-01,1.001334541671760059e-01,9.759555431197101949e-02,9.502236336015595919e-02,9.241363802592672538e-02,8.977739926218525346e-02,8.708975482075592689e-02,8.435599016807281136e-02,8.156929574615374989e-02,7.871401020793578063e-02,7.576286248227612208e-02,7.266452190146831247e-02,6.945043362453701130e-02,6.606204990609634842e-02,6.248881098710348803e-02,5.853884695845024827e-02,5.412645079279795185e-02,4.909092336321697891e-02,4.281036806494432911e-02,3.231534250469394326e-02,1.958868620039827535e-02,nan
nan,2.222345711746757935e-02,3.591827255602295099e-02,4.455436420590908747e-02,5.058590871123212762e-02,5.548134540936593140e-02,5.968976338904020962e-02,6.358938942372849290e-02,6.710028748733741499e-02,7.045041102957728951e-02,7.362497975155113394e-02,7.669648476999099684e-02,7.964940845687087934e-02,8.248720331136273620e-02,8.524571436833185134e-02,8.791739973911663619e-02,9.052082215515827590e-02,9.307800624930633038e-02,9.558607837909301186e-02,9.807998700349992993e-02,1.005279195775230783e-01,1.029651179974797603e-01,1.053918192728938025e-01,1.077910828170594304e-01,1.101816108618924733e-01,1.125806074079536978e-01,1.149492651759364270e-01,1.173197858235994484e-01,1.197067709758516812e-01,1.220598587454569672e-01,1.244307274238542482e-01,1.267812607726453988e-01,1.292061522467841672e-01,1.315934751911049527e-01,1.339943064573539677e-01,1.364227463559357090e-01,1.388294479763889921e-01,1.411664362005148055e-01,1.435290255541613602e-01,1.458551653650195234e-01,1.479878803266597154e-01,1.502601539345832515e-01,1.522139739980341300e-01,1.540783264175600298e-01,1.558126181919321507e-01,1.571999295942697050e-01,1.584438347670490965e-01,1.593673526362030801e-01,1.599973942626921886e-01,1.603153460465255309e-01,1.602926380361605618e-01,1.598463151994488629e-01,1.590948294676937103e-01,1.581695438304870083e-01,1.568290188976458333e-01,1.552766267995882021e-01,1.535224468337196835e-01,1.516111711235784698e-01,1.494933686018053987e-01,1.473047011821035923e-01,1.450486777244037739e-01,1.426694052482011532e-01,1.403264453390878075e-01,1.378894583990644684e-01,1.355473028067535335e-01,1.331385967047145069e-01,1.307172643550246205e-01,1.283217282242068991e-01,1.258945216608537421e-01,1.234728505843654955e-01,1.210653539965263481e-01,1.186520238221294848e-01,1.162700749561171032e-01,1.138459743524213863e-01,1.114341544315258364e-01,1.090138812641407995e-01,1.065904125956591425e-01,1.041405804696923509e-01,1.016952981309120346e-01,9.920016066558183521e-02,9.669613238577777492e-02,9.415389485434692840e-02,9.158696987455111627e-02,8.895429169638978395e-02,8.627627003252719140e-02,8.355704079897102732e-02,8.078462007737172157e-02,7.792038108946214292e-02,7.492055056148264058e-02,7.185196153502272642e-02,6.861720769411117082e-02,6.518813145319671265e-02,6.151497104639916391e-02,5.754483672764204583e-02,5.312633072546325830e-02,4.802260673192780549e-02,4.142614606679083378e-02,3.159286203320396669e-02,1.828124089989601603e-02,nan
nan,2.206289195410480672e-02,3.483568455676154529e-02,4.347853176212222032e-02,4.939587043645959213e-02,5.438713627035549752e-02,5.865959177095053656e-02,6.257800579506307692e-02,6.616165162961455681e-02,6.951386490529766482e-02,7.273126922867993727e-02,7.577281506945049427e-02,7.872751597164352744e-02,8.156248713071466427e-02,8.431617520527005805e-02,8.699009896458123614e-02,8.956823046801895560e-02,9.212589306689795976e-02,9.462259883746360067e-02,9.706627404014839255e-02,9.950920074527222492e-02,1.019156864287278086e-01,1.043046965594195130e-01,1.066672562321218654e-01,1.090220447263101911e-01,1.113581861193573552e-01,1.136965835437785816e-01,1.160065382666594092e-01,1.183326171814765154e-01,1.206432504536673889e-01,1.229265451785378493e-01,1.252295657186384137e-01,1.274806579239604054e-01,1.298213895066617218e-01,1.320948546942602442e-01,1.343855434488830658e-01,1.366309885097867771e-01,1.388089709465162025e-01,1.410673872883653757e-01,1.431470925081941570e-01,1.451901402154048004e-01,1.471239817959890117e-01,1.489571805044060948e-01,1.506963279691173052e-01,1.521851315869262589e-01,1.534782070366389473e-01,1.544799615207992083e-01,1.552887914366425648e-01,1.558274028811621748e-01,1.560883851848225978e-01,1.560775207012556620e-01,1.558009936607873125e-01,1.551037213194348952e-01,1.542048641872565962e-01,1.531028208871009211e-01,1.516734761057482173e-01,1.501149563268213138e-01,1.483670516721316002e-01,1.464990211792649433e-01,1.444645989327002777e-01,1.424392213486570524e-01,1.402636148759146273e-01,1.380604410206385801e-01,1.358191060152356966e-01,1.335315409269884623e-01,1.312320583054969458e-01,1.289446019166743396e-01,1.266199100176977621e-01,1.243188436274696163e-01,1.219715866617384903e-01,1.196615403759682394e-01,1.173238781667450131e-01,1.149682501984602007e-01,1.126221510690022520e-01,1.102685975195176055e-01,1.078884638168136068e-01,1.054954719233802823e-01,1.031060373159121413e-01,1.006547414961554143e-01,9.821170825374203606e-02,9.573362374569482913e-02,9.320342846233103939e-02,9.064643777151937254e-02,8.804667909578736684e-02,8.538774535209568695e-02,8.267529087973968238e-02,7.987671464485394945e-02,7.701690678967301751e-02,7.400423006006043303e-02,7.089746740724563179e-02,6.766541629783041911e-02,6.422170989626213577e-02,6.046147042022500390e-02,5.647818879567391426e-02,5.181018998382079521e-02,4.653660721129847244e-02,3.943691867363548209e-02,2.971211527055609911e-02,1.674397651342287435e-02,nan
nan,2.031665316789994791e-02,3.419373654005164465e-02,4.187068110814729655e-02,4.809621625284060675e-02,5.320921829511583018e-02,5.753128647225647097e-02,6.149584150006124489e-02,6.509134377369138469e-02,6.851660884502173976e-02,7.168556378018703379e-02,7.478499838768085106e-02,7.773089432163347856e-02,8.056279540079847035e-02,8.329851036701638178e-02,8.597245313314619275e-02,8.855318971132633554e-02,9.108261499350348012e-02,9.355436609946990445e-02,9.601549852053728462e-02,9.842897013882144497e-02,1.008046250245108744e-01,1.031552853938439845e-01,1.054987322396686161e-01,1.078082587702275802e-01,1.101069936222596191e-01,1.123653450617916882e-01,1.146398962696541651e-01,1.168875577388527320e-01,1.191265605937682770e-01,1.213287427496487769e-01,1.235668517229626950e-01,1.257533648665276338e-01,1.279372813684746257e-01,1.301116447659969311e-01,1.322755558828162536e-01,1.344007937271779474e-01,1.364773486441251682e-01,1.385220612619187108e-01,1.404925777945349452e-01,1.423910359636342826e-01,1.441705327494039457e-01,1.458314375467387736e-01,1.473526499776725007e-01,1.487674051745687120e-01,1.498695899077186477e-01,1.507551150628745062e-01,1.515238000773486415e-01,1.520103476480487437e-01,1.521910583571968734e-01,1.521908505033569281e-01,1.518830476725492873e-01,1.512408533876305472e-01,1.505392810411609883e-01,1.494883462823904940e-01,1.481729164165623280e-01,1.468224907805829593e-01,1.451775967477473006e-01,1.435550335712928172e-01,1.417074587311614453e-01,1.397928763641140826e-01,1.377811444733375024e-01,1.357616215236696899e-01,1.336487457549695446e-01,1.314787630672826502e-01,1.293425580950295084e-01,1.271229694352346284e-01,1.249031223291849901e-01,1.226427580127025241e-01,1.204261179751819621e-01,1.181665871454322392e-01,1.158957531945840752e-01,1.136200758504220393e-01,1.113088174517236906e-01,1.090185763385861928e-01,1.066987651379694146e-01,1.043509129009872471e-01,1.019695221040838318e-01,9.958857533946699481e-02,9.713538572909199975e-02,9.469569930546992143e-02,9.217207985952283189e-02,8.964235779515775104e-02,8.702904246213939710e-02,8.441718083366968328e-02,8.173615099554236429e-02,7.894694844928271116e-02,7.604577348953589500e-02,7.305276043958845722e-02,6.993014645781396588e-02,6.664745823058591812e-02,6.316229566215773861e-02,5.942759675356815846e-02,5.540561060313999031e-02,5.060326556501715256e-02,4.509482693560105254e-02,3.791584120065909919e-02,2.878465923043341257e-02,1.662728200014876312e-02,nan
nan,1.948510515832279841e-02,3.148497004895063622e-02,4.029531556126453307e-02,4.674641879792981736e-02,5.190843066147408230e-02,5.628406855102255357e-02,6.031634415667554150e-02,6.395135358368152223e-02,6.737357798799382957e-02,7.058049156560891602e-02,7.369301746975932821e-02,7.665652854741202005e-02,7.947202212377710295e-02,8.221969879781115820e-02,8.486417195782358647e-02,8.745839450034936791e-02,8.997305612871620006e-02,9.245426251839400367e-02,9.488472502341457893e-02,9.726929793388980339e-02,9.961908200861910312e-02,1.019520869112257450e-01,1.042256875529190968e-01,1.064994880694403456e-01,1.087719693160205531e-01,1.109933592186355955e-01,1.131986947277597022e-01,1.153814874736741602e-01,1.175532358474242201e-01,1.197120890705919705e-01,1.218526618634265812e-01,1.239664766443765304e-01,1.260633479075950469e-01,1.281341990375226558e-01,1.301782956386458578e-01,1.321906579467458098e-01,1.341202622358507734e-01,1.360263758017820901e-01,1.378694727816540400e-01,1.395966906078135172e-01,1.412160560318441171e-01,1.427788617679645322e-01,1.441298193909950343e-01,1.453878293017092926e-01,1.464354848107323193e-01,1.472870215679152883e-01,1.479003289208584149e-01,1.482951127549117232e-01,1.485488648825397662e-01,1.484582806543210953e-01,1.482109728120171999e-01,1.476988973811081407e-01,1.469809591148112660e-01,1.460512666416232674e-01,1.449861007427970250e-01,1.436319316045583105e-01,1.422184481093738684e-01,1.407300852647191125e-01,1.389844173882565648e-01,1.372256796499024545e-01,1.353260091412986088e-01,1.334263026708356059e-01,1.314341951236214778e-01,1.294320857912886202e-01,1.273681900193986971e-01,1.252690082869544197e-01,1.231350292329450730e-01,1.209797189333114698e-01,1.188175072561564044e-01,1.166284837877148151e-01,1.144185125473672487e-01,1.122153431883399222e-01,1.099710928585276581e-01,1.077030929584774921e-01,1.054201202404455584e-01,1.031162930534863381e-01,1.007754120263073538e-01,9.841075658467271503e-02,9.599878027988482943e-02,9.357809084324764104e-02,9.108313695919904862e-02,8.856934590361875692e-02,8.599856609242764738e-02,8.337601476480380192e-02,8.068456416993846636e-02,7.788370010107595331e-02,7.498932440457584114e-02,7.198541754319159880e-02,6.882476658777751666e-02,6.554159318748847829e-02,6.193768272078629261e-02,5.819337024583477735e-02,5.404917206897309062e-02,4.925319791377315987e-02,4.350806149514180321e-02,3.594605995947587618e-02,2.637331219292110562e-02,1.539863091457104385e-02,nan
nan,1.686149093509605595e-02,2.907411547114446826e-02,3.808932326553762793e-02,4.521925102145529785e-02,5.051818973112000982e-02,5.502635575976970450e-02,5.908364976541170127e-02,6.270615318225260248e-02,6.618099806636412730e-02,6.941608504330468166e-02,7.250856488039150727e-02,7.546820564562087275e-02,7.833198785148354215e-02,8.107233297915950043e-02,8.372051993975776485e-02,8.629416325474281724e-02,8.879384904552978242e-02,9.126710008470055591e-02,9.368263849196714621e-02,9.603196623532485321e-02,9.836614336689745997e-02,1.006460818779016525e-01,1.029093700277549372e-01,1.051537044381044145e-01,1.073593453868833258e-01,1.095329761456775020e-01,1.116809436137631562e-01,1.138249689586479929e-01,1.159351907679358751e-01,1.180316298259683483e-01,1.200936088666748613e-01,1.221171806832061085e-01,1.241028350645947825e-01,1.261021637606328794e-01,1.279973577500896353e-01,1.299179851527733076e-01,1.317607334688868648e-01,1.335438550516089284e-01,1.352536621260668204e-01,1.368898356485196144e-01,1.383736046771815165e-01,1.397501757571739667e-01,1.410176920072943041e-01,1.421695097394900797e-01,1.430745818796288205e-01,1.438581741421840476e-01,1.444897712173175974e-01,1.448315913622364448e-01,1.449971307323290604e-01,1.449489434727017079e-01,1.447550041837532275e-01,1.442668148177269072e-01,1.436462107304299074e-01,1.428099929836564863e-01,1.417569404983169135e-01,1.405654962171485889e-01,1.392845666492724677e-01,1.378539458280519381e-01,1.362986131010646140e-01,1.346130782578305873e-01,1.328968377665127321e-01,1.310953372346810586e-01,1.292262591141891681e-01,1.273222550398479258e-01,1.253257500435810967e-01,1.233363743221981557e-01,1.212679189349072928e-01,1.192321433892186561e-01,1.171362897124974267e-01,1.150212440323025165e-01,1.128769847409944460e-01,1.107169448527422495e-01,1.085382056639408316e-01,1.063301617665191323e-01,1.040781105234986903e-01,1.018180383880226414e-01,9.950079334542749621e-02,9.715659964395120807e-02,9.481049768367900976e-02,9.239071874465501488e-02,8.993860417614765734e-02,8.742850486930972553e-02,8.485958841652772866e-02,8.224224754451012198e-02,7.958594478597494359e-02,7.678042438058316210e-02,7.385396730453194780e-02,7.083567083810904386e-02,6.766803273586914635e-02,6.427529514158969448e-02,6.071101051855060105e-02,5.679577335975398433e-02,5.260963373634682666e-02,4.767419388105247763e-02,4.184165317167664461e-02,3.364012439866099352e-02,2.364777160521544172e-02,1.317357646557939729e-02,nan
nan,1.392363325837196047e-02,2.538266268248992250e-02,3.547851478954705540e-02,4.334853241135480650e-02,4.896839935811567179e-02,5.355090363578453305e-02,5.762898624849424611e-02,6.138055472285023489e-02,6.484872192150321901e-02,6.812979230846150092e-02,7.125591327089131344e-02,7.424866182174426343e-02,7.707618741890652492e-02,7.983968327393219100e-02,8.248577163173329008e-02,8.505721320432388377e-02,8.754340905460736288e-02,9.000079083920056733e-02,9.241291444169409675e-02,9.475246386098531981e-02,9.704075435678893857e-02,9.929313631462605150e-02,1.015165203770138636e-01,1.037035460316789448e-01,1.058834619228601476e-01,1.080186201326976125e-01,1.101156733732262527e-01,1.122022867435609889e-01,1.142403282272891757e-01,1.162728358143421126e-01,1.182656104656513579e-01,1.202176489657742764e-01,1.221429703156511615e-01,1.240364338137068811e-01,1.258558518366431067e-01,1.276474479734087120e-01,1.293821586255150258e-01,1.310691469417128718e-01,1.326543014348255667e-01,1.341510451818601624e-01,1.355959370854052937e-01,1.368325224882147029e-01,1.380130381806450868e-01,1.389942359662510729e-01,1.398529126750610585e-01,1.405944618899206966e-01,1.411320219064302051e-01,1.414663669915416366e-01,1.416400736678133376e-01,1.416000643979973272e-01,1.413910338777414344e-01,1.409701187844659143e-01,1.403888684814642851e-01,1.396204763469256205e-01,1.387145336066080703e-01,1.376147701448222627e-01,1.364115753386797025e-01,1.351011928688419794e-01,1.336307327355971131e-01,1.320925580450189596e-01,1.304448817150228590e-01,1.287730235243194077e-01,1.270022913359460104e-01,1.251722327410576541e-01,1.233023099570904613e-01,1.213410210976624271e-01,1.194344154173874462e-01,1.174493726382166148e-01,1.154087285451696754e-01,1.133710739713433974e-01,1.112787841546101497e-01,1.091790544991320389e-01,1.070295833414617176e-01,1.048595184205749209e-01,1.026857287305878302e-01,1.004463168901794934e-01,9.817985781278613933e-02,9.587098154341663903e-02,9.352338566953144472e-02,9.113870868251919277e-02,8.868264483583407354e-02,8.617629619098243765e-02,8.364115357743590051e-02,8.107948804980284752e-02,7.836771130649841655e-02,7.555824065881514007e-02,7.263915024879648297e-02,6.957713889246748551e-02,6.640245754647856880e-02,6.299290480249426782e-02,5.928578479569131254e-02,5.533174723447800009e-02,5.093904279731318457e-02,4.601476802102946739e-02,3.946443851357236965e-02,3.173618444666024413e-02,2.136081989094017544e-02,1.218650429564105062e-02,nan
nan,1.269079460763304634e-02,2.245177814902264354e-02,3.318196709367574049e-02,4.112508136091001104e-02,4.709850684458741221e-02,5.182420249059436351e-02,5.611684141404151005e-02,5.990913156574776549e-02,6.342567131055960872e-02,6.679684757854906230e-02,6.993078901722431240e-02,7.288724564831963737e-02,7.577400980037388156e-02,7.851804947361655518e-02,8.118209599397302467e-02,8.374820153921240518e-02,8.623704565895959351e-02,8.867514129481046670e-02,9.105950492826661580e-02,9.338442977545836909e-02,9.566112758894701473e-02,9.788775999615359491e-02,1.000778254326063210e-01,1.022403381141910594e-01,1.043656458579953206e-01,1.064538811339896529e-01,1.085173820899765218e-01,1.105407061705015737e-01,1.125375141625844788e-01,1.144900028629642352e-01,1.164056395476080752e-01,1.182844857443385161e-01,1.201483535674025688e-01,1.219363925516313285e-01,1.236862743464062220e-01,1.253992292119089913e-01,1.270544629671280790e-01,1.286101300223704558e-01,1.300939084052465111e-01,1.315005366934987596e-01,1.328152254539246846e-01,1.339895459627928609e-01,1.350524248132178584e-01,1.359916942958345198e-01,1.368090112335947628e-01,1.374454883584546872e-01,1.378926495677649244e-01,1.382575795562168974e-01,1.383647005134065744e-01,1.383487780169989079e-01,1.381397733086288659e-01,1.377551049436561426e-01,1.372289066487314968e-01,1.365481052384862615e-01,1.356904525478473955e-01,1.347071836484134422e-01,1.335992892220558559e-01,1.323454425902053644e-01,1.310244797810220241e-01,1.295515753147628013e-01,1.280548577366549257e-01,1.264414916875585271e-01,1.247697434359788665e-01,1.230280434509623821e-01,1.212409303180745912e-01,1.194038640009449925e-01,1.175389452146793634e-01,1.155981194220107866e-01,1.136513087063691918e-01,1.116556142998874623e-01,1.096379311134858536e-01,1.075856916545557124e-01,1.054814840538242926e-01,1.033823870587067262e-01,1.012160447836162047e-01,9.901350968100447458e-02,9.678283972095860777e-02,9.450375220706043466e-02,9.219408983441684802e-02,8.982370202754674793e-02,8.737832545577936538e-02,8.490095381397957941e-02,8.236020727284998344e-02,7.975263360387323253e-02,7.705798156610479954e-02,7.424538284500140084e-02,7.130611570428319057e-02,6.825443448443820060e-02,6.501049748434478692e-02,6.154339365222595559e-02,5.778486329287903234e-02,5.370277899539435684e-02,4.927335192390423085e-02,4.421634889728183471e-02,3.786114279471805566e-02,2.956463592915627853e-02,1.997979897382974254e-02,1.168951476571220525e-02,nan
nan,1.152949524783449323e-02,2.016224950310048503e-02,3.015011447545762682e-02,3.911271381992385138e-02,4.500227103496812903e-02,5.010378155879322004e-02,5.434987541668338806e-02,5.832691067551523667e-02,6.193864443277992404e-02,6.531838121457271551e-02,6.849134797543759978e-02,7.147758216062100045e-02,7.436118392327599469e-02,7.711179580726633398e-02,7.978011089332483208e-02,8.235110056270522616e-02,8.483858737166212471e-02,8.728015343793757430e-02,8.964937273506179416e-02,9.195017114403472580e-02,9.420849788580741568e-02,9.640155052060037089e-02,9.857228614254917587e-02,1.006882389038230019e-01,1.027817824276460734e-01,1.048394276459851671e-01,1.068473292231581495e-01,1.088298497305855705e-01,1.107655177904201954e-01,1.126519269657852429e-01,1.145185537745550819e-01,1.163308484292732009e-01,1.181111183109010837e-01,1.198431302153697142e-01,1.215291339295879458e-01,1.231187645940885755e-01,1.246812135613380446e-01,1.261523187077592811e-01,1.275661707690344260e-01,1.288863239865249977e-01,1.300828115195276358e-01,1.312136939541964642e-01,1.322021352222036705e-01,1.330862215473838928e-01,1.338189985470299992e-01,1.344332444932148374e-01,1.348366911989432593e-01,1.351492820547869067e-01,1.352446969860546799e-01,1.352439674553548299e-01,1.350503443655939328e-01,1.347231792811140472e-01,1.342237073193496555e-01,1.335709210885146492e-01,1.327660753882304034e-01,1.318871164454014921e-01,1.308278559173018663e-01,1.296573695477994392e-01,1.284114142093314981e-01,1.270517438610151151e-01,1.256344509857513780e-01,1.241260211611387443e-01,1.225169970850639445e-01,1.208565212085158380e-01,1.191518853593411253e-01,1.173800815262789760e-01,1.155941021938049762e-01,1.137348062811310012e-01,1.118417560016779777e-01,1.099053236660666177e-01,1.079464166517230539e-01,1.059436215199011100e-01,1.038950391985257460e-01,1.018333741746886706e-01,9.968947336660573255e-02,9.753307152665013913e-02,9.532215463716453563e-02,9.307684124589890584e-02,9.079250395760450620e-02,8.841152426668029418e-02,8.602082532136627602e-02,8.353446183813609260e-02,8.100117962095827739e-02,7.838651036249136284e-02,7.567373497517354552e-02,7.287424013564916536e-02,6.991242055014061652e-02,6.675783326042389332e-02,6.348821091659014038e-02,5.992460120878469881e-02,5.606819910226405745e-02,5.173983667447636103e-02,4.721483373137930900e-02,4.217606514764929426e-02,3.573476363636823860e-02,2.672541126533720807e-02,1.714977134483368706e-02,1.004179163542727980e-02,nan
nan,1.051122473336041883e-02,1.811933724546012023e-02,2.798357499390338038e-02,3.661744237138309099e-02,4.275941662453190684e-02,4.798703485453390677e-02,5.256049273573234343e-02,5.661419174181510361e-02,6.026746905805240029e-02,6.372558386298593502e-02,6.694290296448088262e-02,6.996269630238940995e-02,7.289020996599057667e-02,7.565697363821290156e-02,7.831740578994129953e-02,8.088970242132775823e-02,8.338734051722269947e-02,8.580419794583188375e-02,8.816669392026167673e-02,9.046255704461032832e-02,9.268059100996980937e-02,9.487947318504000305e-02,9.700453116477905646e-02,9.909967544927916760e-02,1.011485440636402805e-01,1.031681296511877677e-01,1.051168408931655446e-01,1.070582447503933693e-01,1.089335467357706866e-01,1.107871032307236742e-01,1.125862559411297259e-01,1.143515210082841627e-01,1.160621953474085394e-01,1.177057822248305102e-01,1.193154384811528357e-01,1.208514737970252939e-01,1.223504905213731453e-01,1.237251632837874649e-01,1.250728641668393260e-01,1.262895199551043457e-01,1.274367618185794360e-01,1.284693907593994766e-01,1.294149124772870085e-01,1.302190494594953063e-01,1.309193545670963021e-01,1.314478321348053480e-01,1.318648020845283042e-01,1.321081136493948427e-01,1.322583366819620743e-01,1.322168627407676322e-01,1.320208867691679278e-01,1.317502534731989083e-01,1.312987046630864629e-01,1.306537588465674915e-01,1.299202816383026315e-01,1.290759184042090391e-01,1.281110361636954575e-01,1.270420825256665109e-01,1.258611522833222029e-01,1.245961304432470773e-01,1.232325227968390363e-01,1.217830739469254464e-01,1.202686342419724275e-01,1.186859751071463603e-01,1.170537605776239692e-01,1.153478826510695721e-01,1.136080210643957422e-01,1.118287192297908600e-01,1.099989648310453205e-01,1.081271791646034042e-01,1.062007544252974445e-01,1.042451090356022875e-01,1.022521308118752581e-01,1.001982269287174099e-01,9.810586458892367467e-02,9.598530969984500616e-02,9.380100967639515286e-02,9.156667894922584927e-02,8.929997083922663892e-02,8.694444712153839849e-02,8.457534563063984212e-02,8.210842769021407805e-02,7.957275154242132720e-02,7.695023888125437916e-02,7.422494906961062122e-02,7.138407063567804578e-02,6.839553935339309776e-02,6.526421697644749220e-02,6.189248840844438493e-02,5.826580358004009030e-02,5.428329040020050261e-02,4.974622560583243092e-02,4.477420315312886229e-02,3.937284305684967539e-02,3.255893842702745067e-02,2.368711057739390086e-02,1.442865833487691485e-02,8.148974510762265616e-03,nan
nan,8.890089673146042704e-03,1.576008724882228818e-02,2.520991656785459903e-02,3.352217865210158076e-02,4.056457759985133971e-02,4.597783006195094169e-02,5.057321599333589740e-02,5.469635641509845020e-02,5.852620211968265901e-02,6.201910741626558837e-02,6.526432363932074820e-02,6.837287052871839077e-02,7.131750667866383619e-02,7.409686317014757551e-02,7.677738052647134492e-02,7.935425923764592715e-02,8.184804609154040789e-02,8.424951644872581691e-02,8.660616794648010042e-02,8.889085605472635265e-02,9.111042982076225649e-02,9.326711028841964957e-02,9.538935108409035690e-02,9.745801198761008810e-02,9.946397814362491208e-02,1.014347517646705527e-01,1.033688005837340718e-01,1.052383567097301131e-01,1.070953573494615452e-01,1.089005030224581977e-01,1.106363766332947030e-01,1.123369874107549016e-01,1.139771050006762321e-01,1.155704624260928126e-01,1.171212367074844218e-01,1.185860849848791032e-01,1.199579387922636020e-01,1.213220584391418444e-01,1.225380546012896366e-01,1.237380458576592401e-01,1.248103049961790112e-01,1.257927439939753866e-01,1.266827686108835116e-01,1.273976730936068891e-01,1.280547767941615511e-01,1.285653821611224823e-01,1.289509100793926888e-01,1.291900874343225036e-01,1.292869672059858421e-01,1.292706775670230956e-01,1.291180547496001141e-01,1.288417144239906165e-01,1.284112184497520071e-01,1.278278896904067319e-01,1.271433760000204582e-01,1.263723070504308432e-01,1.254334677962955225e-01,1.244391621641183221e-01,1.233283131219323620e-01,1.221114121663392782e-01,1.207972452206314412e-01,1.194571622523747101e-01,1.180089853472645195e-01,1.164963198399740080e-01,1.149443237996615602e-01,1.133101885355285443e-01,1.116421753941468226e-01,1.098860921922810291e-01,1.081012102448183354e-01,1.062856228930118691e-01,1.044057628762205814e-01,1.024930116132851121e-01,1.005289613682697203e-01,9.851859937867057937e-02,9.647925484357527948e-02,9.437815435948318510e-02,9.221553656191101844e-02,9.000986249254208649e-02,8.775196755154718309e-02,8.542866214961272742e-02,8.303502585374669676e-02,8.059781463105787636e-02,7.803153349774877290e-02,7.543352342913252351e-02,7.269287470745572355e-02,6.983359839090906573e-02,6.680806098267556836e-02,6.362793271692640529e-02,6.018176573295294651e-02,5.651390647400823808e-02,5.236356326614177714e-02,4.794390594545547279e-02,4.306983638497860478e-02,3.681989674103994942e-02,2.975031981062689623e-02,2.096260095310986671e-02,1.289698456143621892e-02,7.850455002286755093e-03,nan
nan,7.925084281066602926e-03,1.338687227751042888e-02,2.184235327314209413e-02,3.066255427576634190e-02,3.776575114892137541e-02,4.349983556884513131e-02,4.834104243708627763e-02,5.263716624385947340e-02,5.663815502230680476e-02,6.018682146715596815e-02,6.350289252213012214e-02,6.666008482307701766e-02,6.960195929983044316e-02,7.243514384507526715e-02,7.512911054772285213e-02,7.772785673188875588e-02,8.024338294367988622e-02,8.266646528858219434e-02,8.498911333073026764e-02,8.725498035374591732e-02,8.947259448267151638e-02,9.160590993547651495e-02,9.369706212974673876e-02,9.574457118182258530e-02,9.772495774340336783e-02,9.967165762090604564e-02,1.015614607658734542e-01,1.034044043514815714e-01,1.051976512432063748e-01,1.069406954531920695e-01,1.086247073001791880e-01,1.102927233274468288e-01,1.118976126792827486e-01,1.134240960372192991e-01,1.149046557013718856e-01,1.163398851119264998e-01,1.176653656209922100e-01,1.189208394650273226e-01,1.201008880303918308e-01,1.212249543859095502e-01,1.222332516183383677e-01,1.231331192440771327e-01,1.239558400121291010e-01,1.246811515003940218e-01,1.252806601935145536e-01,1.257378028013212967e-01,1.261097800138009928e-01,1.263292316700157791e-01,1.264255036890568062e-01,1.264099814763226803e-01,1.262380894561361266e-01,1.260029276150771149e-01,1.255865127406326220e-01,1.250653960131712927e-01,1.244137669936582202e-01,1.236684249867228691e-01,1.228124586217919645e-01,1.218557408574261341e-01,1.208186577506545484e-01,1.196495330046181693e-01,1.184132593846383003e-01,1.171262094684674682e-01,1.157429283314809765e-01,1.142900093535425265e-01,1.127916350012561908e-01,1.112291726891133231e-01,1.096135076866426999e-01,1.079264126492385789e-01,1.061710422138205379e-01,1.043974361461165040e-01,1.025743368643302345e-01,1.006828731522746156e-01,9.875967605794649939e-02,9.680942645318807438e-02,9.478200908178033290e-02,9.269105579053960042e-02,9.057213585020608415e-02,8.837848043864424130e-02,8.613205395796708075e-02,8.383643902299250938e-02,8.147862250747271717e-02,7.900019162915417059e-02,7.645168008321037711e-02,7.379166747299518991e-02,7.107681883571133341e-02,6.814827123375730156e-02,6.508420276290016737e-02,6.183251824238528843e-02,5.835153413247178011e-02,5.458075553921117734e-02,5.032599885940945705e-02,4.596594848503463698e-02,4.068246785215834382e-02,3.470699109178421865e-02,2.674220644550770465e-02,1.813476848888154191e-02,1.102955249154193018e-02,6.879853174740059238e-03,nan
nan,6.861478098209400529e-03,1.174732818225004798e-02,1.824529995901699383e-02,2.679617986700469356e-02,3.439324452240955649e-02,4.075571441541209206e-02,4.592433085074430765e-02,5.051214556219052465e-02,5.452785512821849145e-02,5.821011782284003788e-02,6.162312012029427799e-02,6.478915186976912099e-02,6.782944066507401448e-02,7.069820178240202035e-02,7.339333550716352350e-02,7.604052656473882232e-02,7.854792686932884904e-02,8.095456925131262749e-02,8.329308283103180333e-02,8.556303152246730326e-02,8.774774414754547835e-02,8.987586811869169301e-02,9.195076233576149338e-02,9.397795320278926057e-02,9.593678362020717498e-02,9.783957950201394027e-02,9.971063831357727947e-02,1.015108543461478718e-01,1.032678882367311646e-01,1.049589017718969564e-01,1.066108782545965306e-01,1.082220682422758151e-01,1.097699937947719251e-01,1.112598536509530056e-01,1.126692526579959747e-01,1.140702131905839412e-01,1.153124059788190880e-01,1.165001081911759689e-01,1.176396420878440402e-01,1.187142192086684533e-01,1.196622141639094861e-01,1.205169309834721592e-01,1.213010398949574270e-01,1.219851342898473634e-01,1.225453470480006024e-01,1.229821527733006292e-01,1.233175192272208121e-01,1.235246676385870490e-01,1.236472625820826121e-01,1.236319913637057566e-01,1.234681401726030747e-01,1.232083680390661101e-01,1.228128295681498033e-01,1.223516149231983485e-01,1.217435443262980532e-01,1.210421860941025551e-01,1.202161210958293258e-01,1.193088813345578453e-01,1.183198274710155345e-01,1.172135887760486633e-01,1.160341194265731984e-01,1.147961005298948900e-01,1.134705644336301278e-01,1.121025818643319183e-01,1.106284483031666627e-01,1.091121506836975341e-01,1.075577753212071525e-01,1.059152374971391031e-01,1.042169515493848037e-01,1.024947917508720330e-01,1.006908092910038521e-01,9.884118730761780325e-02,9.695946313654120463e-02,9.503397267450779118e-02,9.300890454580501565e-02,9.097147844131241168e-02,8.886212623771043428e-02,8.667586443866459600e-02,8.443548203885863079e-02,8.219276458226471016e-02,7.980673771281425466e-02,7.735020416977514413e-02,7.476780125344720251e-02,7.210178709018595644e-02,6.929191381296646857e-02,6.639253014612860049e-02,6.327069120300796157e-02,5.992603661468594300e-02,5.639316445520937970e-02,5.249467650645602695e-02,4.828607383077606480e-02,4.349787112927206573e-02,3.792091496083373897e-02,3.134536840268144914e-02,2.308810659116944386e-02,1.459040899370789290e-02,9.456671356794966662e-03,5.985095738390431436e-03,nan
nan,5.874975947624377567e-03,1.005570907938919088e-02,1.490540926394389593e-02,2.231699808000503493e-02,3.068430807612504765e-02,3.725210438177965072e-02,4.299924535617190291e-02,4.800458488140676300e-02,5.222485658223982585e-02,5.611651308328911847e-02,5.953446658577649098e-02,6.286323360606528576e-02,6.592407450656154189e-02,6.883519210662106258e-02,7.160482245103065579e-02,7.421915912967806672e-02,7.675909236706622563e-02,7.919190918004467838e-02,8.153461756376854941e-02,8.378268637548937081e-02,8.597872155681730855e-02,8.808802519053071656e-02,9.013592458530837737e-02,9.214908049036323046e-02,9.408461907557819082e-02,9.596861885112294155e-02,9.779233572483907178e-02,9.955415523836549929e-02,1.012946996897313989e-01,1.029595353785024009e-01,1.045596916617982930e-01,1.061272400124029514e-01,1.076194851349197984e-01,1.090560677288496955e-01,1.104206681774320131e-01,1.117270318248951844e-01,1.129580655936215511e-01,1.141212616035421901e-01,1.152276890277778854e-01,1.162093371348947995e-01,1.171319562355316729e-01,1.179672106273749188e-01,1.186861769301678221e-01,1.193114904725861847e-01,1.198483093605735295e-01,1.202700663150598620e-01,1.205834056356577116e-01,1.208138184631054046e-01,1.209001672470734479e-01,1.208682092793136875e-01,1.207193750552620348e-01,1.204813027425279820e-01,1.201471584221069921e-01,1.196798517854925636e-01,1.190887550863578975e-01,1.184292513334066071e-01,1.176522153154271194e-01,1.168012591225568719e-01,1.158398321747031862e-01,1.147806268983762590e-01,1.136667141950671311e-01,1.124549403811200138e-01,1.111967458598552838e-01,1.098709505221279747e-01,1.084485197164916925e-01,1.069799027130852176e-01,1.054446442867613826e-01,1.038622292092497845e-01,1.022209577741027831e-01,1.005175472363241118e-01,9.876972183648449755e-02,9.696135228728282318e-02,9.510103773480151068e-02,9.318515768850409164e-02,9.121361919480069913e-02,8.918213110212919181e-02,8.708510439826766536e-02,8.491455029551603362e-02,8.269215319863851277e-02,8.046884358681299920e-02,7.804673950832745344e-02,7.557984596499928154e-02,7.301544377574561984e-02,7.027842257973224149e-02,6.748691099204276456e-02,6.446963804703743917e-02,6.131993042662861604e-02,5.789826246647235275e-02,5.428489882553676898e-02,5.027151968830192996e-02,4.588032814208848481e-02,4.093711358435433989e-02,3.484252423813550409e-02,2.755017293948427287e-02,1.944237053293846468e-02,1.198517259929850892e-02,7.809594268069250389e-03,4.895777212807365074e-03,nan
nan,4.714700427772400455e-03,8.145698203729893894e-03,1.210841683801899132e-02,1.803436914664119026e-02,2.618080112337229856e-02,3.376565236310912627e-02,4.006933930358497209e-02,4.526492374233483801e-02,4.979971807322646632e-02,5.377107734639764020e-02,5.739382183231343804e-02,6.077578727314373458e-02,6.391672428565962905e-02,6.688166152840220591e-02,6.967704878244215805e-02,7.234434474916440205e-02,7.489831153760548310e-02,7.731754976313820471e-02,7.968051086640695613e-02,8.195338886040856585e-02,8.412968684900760941e-02,8.624460946226697455e-02,8.827784174724191690e-02,9.025814671244450360e-02,9.217636456667957501e-02,9.404343038114243436e-02,9.583525141178587947e-02,9.758711417335325100e-02,9.925541047088153046e-02,1.008965478969696405e-01,1.024711385416295917e-01,1.039891032874944443e-01,1.054342570482324770e-01,1.068425256213352825e-01,1.081716765327014884e-01,1.094375684316118980e-01,1.106233929777774572e-01,1.117275749504213489e-01,1.127685605696456816e-01,1.137412047193998993e-01,1.146107933218556696e-01,1.154100011001176346e-01,1.161013020980751209e-01,1.166988034964001608e-01,1.172011410149163962e-01,1.176075203084313431e-01,1.178838648912861886e-01,1.181068681763547679e-01,1.181882120769619793e-01,1.181549762429805889e-01,1.180416051897056340e-01,1.178230211638951752e-01,1.174531194254110622e-01,1.170270930738565585e-01,1.164909919617051898e-01,1.158423637104974702e-01,1.151186445843588452e-01,1.142792219439633661e-01,1.133421705990733108e-01,1.123567197468502282e-01,1.112764200001754716e-01,1.101413493480443151e-01,1.089132847275993687e-01,1.076149388829114317e-01,1.062506797180409052e-01,1.048256031846177827e-01,1.033512672096467966e-01,1.017977963550536075e-01,1.001773366332421450e-01,9.852989494371086621e-02,9.679418668843292606e-02,9.502331924128969154e-02,9.318183110914680933e-02,9.129329887464217308e-02,8.932840744321784987e-02,8.731470062655995179e-02,8.524842405554329539e-02,8.307803736665785033e-02,8.089119736241526248e-02,7.863397909768483907e-02,7.625491402734885238e-02,7.373325161663635274e-02,7.111134604782165525e-02,6.841027490155558721e-02,6.552020744627828908e-02,6.247609102907582951e-02,5.922395392134206099e-02,5.577489093538956499e-02,5.188369264324931701e-02,4.770865703882563869e-02,4.279233485872600828e-02,3.748583747433911068e-02,3.112838955834218088e-02,2.334607812687091583e-02,1.546436917179682888e-02,1.043715918805309881e-02,6.389389758106830443e-03,3.935685293851657815e-03,nan
nan,3.604775797268569473e-03,6.424159365177633391e-03,9.314239453731961924e-03,1.464385542622690523e-02,2.137758692046817441e-02,2.971831712117899843e-02,3.643151906101232962e-02,4.205559275349989024e-02,4.702637001884341084e-02,5.124456611388477495e-02,5.510870593760890807e-02,5.856422492648857836e-02,6.175943480426276250e-02,6.479797433899672776e-02,6.765809219254922957e-02,7.034186330991301639e-02,7.294927760990371768e-02,7.541738819205964783e-02,7.775234244332107636e-02,8.002555854897860921e-02,8.221637085594764305e-02,8.431042195724178234e-02,8.634489385839404230e-02,8.830427619397869521e-02,9.022125740702015284e-02,9.205058009467721736e-02,9.383880795543662889e-02,9.554545259239111132e-02,9.721269237751761771e-02,9.881157563727892279e-02,1.003525321338588905e-01,1.018324772303605685e-01,1.032445215536176158e-01,1.046176088317753161e-01,1.058983656236155424e-01,1.071220917005523271e-01,1.082574998726566068e-01,1.093415741630890115e-01,1.103415317440970822e-01,1.112663827746663003e-01,1.121075193408215681e-01,1.128331646972709212e-01,1.135282456913956906e-01,1.141122738225336525e-01,1.145887905775417881e-01,1.149624426762429208e-01,1.152612116423534783e-01,1.154302906306671483e-01,1.155024741078248818e-01,1.155014504093787170e-01,1.153783894355504547e-01,1.151159010536473570e-01,1.148284026673418307e-01,1.143843752827439358e-01,1.138864423792649294e-01,1.132725703544226470e-01,1.125689512479722265e-01,1.117655946883647500e-01,1.109035782077373300e-01,1.099227119317217893e-01,1.089086697805407011e-01,1.077957775644974026e-01,1.066055305088122185e-01,1.053439572298874027e-01,1.040357389644743780e-01,1.026325495608344796e-01,1.011992266342739977e-01,9.966768382268001436e-02,9.810781738069247748e-02,9.648071007744356276e-02,9.479156781681977173e-02,9.303754561216463770e-02,9.121829939619123528e-02,8.935140266331789705e-02,8.740958345038640775e-02,8.539775399804017120e-02,8.331620549978038803e-02,8.118651529328170524e-02,7.898450285299854490e-02,7.669576349886342292e-02,7.429759505723924906e-02,7.177913783881972876e-02,6.915532784819378165e-02,6.637249662771016467e-02,6.344022148105446512e-02,6.023830312899836753e-02,5.701203788709591908e-02,5.341113925915316751e-02,4.926339761244349219e-02,4.507988673246325628e-02,3.992365555117125681e-02,3.401333460122130115e-02,2.679841168535112075e-02,1.866560320938344744e-02,1.211688801730695375e-02,8.000469183148796112e-03,5.077733293623763397e-03,3.043128810377139070e-03,nan
nan,2.705273889753470780e-03,5.004168481871407170e-03,7.647624504005801072e-03,1.143787201292926006e-02,1.745596334821606505e-02,2.489917229052290848e-02,3.214950732030690678e-02,3.877798558503327275e-02,4.397267982700539535e-02,4.846887266652953608e-02,5.262046260654094920e-02,5.617079925279660352e-02,5.946094618822420769e-02,6.258077148592645911e-02,6.548856476345397970e-02,6.826411288928337096e-02,7.085430227215250287e-02,7.337411990685741014e-02,7.572986792284949753e-02,7.802471621006755453e-02,8.020169739367176420e-02,8.230998790430783807e-02,8.435260744103799391e-02,8.629964434449058364e-02,8.819734491730824022e-02,9.001794808010364635e-02,9.176644160127765681e-02,9.347841472282650277e-02,9.511436707290621406e-02,9.667042969766399818e-02,9.818900057008614346e-02,9.963207272479324139e-02,1.010309843142655484e-01,1.023458635395494837e-01,1.036086395062165294e-01,1.048025081771506301e-01,1.059110609471455439e-01,1.069217371915832937e-01,1.079050363831512011e-01,1.087981077646404393e-01,1.095908580867887699e-01,1.103346743455322215e-01,1.109733094963311212e-01,1.115119258706584182e-01,1.119710793650204039e-01,1.123547085043884869e-01,1.126167361675968759e-01,1.127862427205496842e-01,1.128699349626739873e-01,1.128593203173310078e-01,1.127334199081022337e-01,1.125119457195359607e-01,1.122116404228150205e-01,1.118120684674531323e-01,1.113220910117443951e-01,1.107149539122171678e-01,1.100466193710328833e-01,1.092773892471669978e-01,1.084288757681047127e-01,1.075056400611807544e-01,1.065216314639964301e-01,1.054234231381035725e-01,1.042771578517185660e-01,1.030649182083454712e-01,1.017886228582566416e-01,1.004291771727482407e-01,9.899169116513403810e-02,9.752148283350914326e-02,9.597494251497845630e-02,9.438681469593214468e-02,9.271329903209636625e-02,9.099119634764814279e-02,8.920672071890305144e-02,8.735641631329672807e-02,8.540960329891972291e-02,8.341625018798565216e-02,8.134049403934029421e-02,7.920696990837000628e-02,7.696280283481184148e-02,7.469239324496107502e-02,7.227357382105559225e-02,6.972113971709942293e-02,6.702955020345330306e-02,6.425006181659528859e-02,6.121573924990334620e-02,5.802063357515739594e-02,5.454179399042814735e-02,5.075903320674749614e-02,4.659592472546231212e-02,4.178023247303447318e-02,3.634928052348560673e-02,2.973517144590772515e-02,2.236358772542161588e-02,1.439882178909136778e-02,9.186191454305096815e-03,5.970164761632049989e-03,3.754125265003516176e-03,2.181617548372419366e-03,nan
nan,1.879242139194783022e-03,3.899739835086075100e-03,6.085928037040166071e-03,9.358311300831458068e-03,1.376234543486191605e-02,2.060623672303899673e-02,2.768033247170249844e-02,3.430199734462604372e-02,4.055542575224534152e-02,4.549399826466596353e-02,4.986215082968813161e-02,5.362716412521596060e-02,5.706332541444850831e-02,6.016756774624468923e-02,6.322216364669970556e-02,6.605813928989964778e-02,6.871702328583587094e-02,7.121800744789122395e-02,7.365635304190924770e-02,7.593919259775452901e-02,7.813102406401874200e-02,8.024023085539291889e-02,8.227630738555613554e-02,8.423580044434218761e-02,8.611062768065111395e-02,8.790234621678752469e-02,8.965173733715312010e-02,9.133213842213530609e-02,9.296628269583076531e-02,9.450101199211047298e-02,9.599386289294328800e-02,9.741501125396223593e-02,9.876904462546400032e-02,1.000650341669611781e-01,1.012899681836837151e-01,1.024451513636999156e-01,1.035308425375578156e-01,1.045378956416598143e-01,1.054632643323121649e-01,1.063186758865874854e-01,1.071170012375394082e-01,1.077972496319779400e-01,1.084131867641632274e-01,1.089490499854101901e-01,1.093706550698883423e-01,1.097456863326748411e-01,1.100112805955488771e-01,1.101604281099618637e-01,1.102458142349725667e-01,1.102291259932216133e-01,1.101043101241479527e-01,1.099102284143681219e-01,1.096291964553188780e-01,1.092345753509247758e-01,1.087475779363795136e-01,1.081765055513533857e-01,1.075300241604679879e-01,1.067924634311463727e-01,1.059876285741881974e-01,1.050955023520670495e-01,1.041087664868414059e-01,1.030669659723033593e-01,1.019519687845878431e-01,1.007601549756987624e-01,9.950321813616358479e-02,9.816415425122379523e-02,9.678122536021441236e-02,9.533160335390462869e-02,9.382641866804505848e-02,9.222856303198292971e-02,9.061479337702187109e-02,8.890010203348616691e-02,8.712529413013833657e-02,8.527505308370111892e-02,8.335960952771349908e-02,8.134551720286145593e-02,7.929388416475990908e-02,7.712650288976893864e-02,7.491967533434909510e-02,7.257589366782933593e-02,7.012632762495889238e-02,6.754637644480634973e-02,6.483340239909023139e-02,6.194813678699943177e-02,5.888173817228854051e-02,5.547880600816770813e-02,5.193816263608752593e-02,4.797374031277617384e-02,4.354001487635984768e-02,3.856294902174874084e-02,3.225530844255039553e-02,2.510014099703967300e-02,1.715789912013785182e-02,1.110558867159814819e-02,6.931766082697144067e-03,4.189413658159454358e-03,2.225884505012302832e-03,1.177495258239873253e-03,nan
nan,1.470728546380481580e-03,2.775691060791601189e-03,4.679397117188203656e-03,6.938469020432737160e-03,1.060182416089625566e-02,1.620398653227438091e-02,2.267347541876125680e-02,3.000552503853620712e-02,3.651990555217808632e-02,4.230132714152850387e-02,4.680847374929099358e-02,5.088088904745659280e-02,5.446236576328335188e-02,5.768965930535474573e-02,6.076090051751253940e-02,6.367026134444221663e-02,6.640325065325000664e-02,6.898846235003955329e-02,7.144204572658413577e-02,7.375501134638330625e-02,7.596679662509403519e-02,7.808212457669892748e-02,8.012919621179223628e-02,8.208053919291899425e-02,8.397462306491937367e-02,8.576318329609233793e-02,8.748142298184979904e-02,8.915992838844016832e-02,9.075086524085052009e-02,9.228317128044513651e-02,9.374754890426348353e-02,9.514444625831389168e-02,9.649023089903184525e-02,9.774068622308788867e-02,9.894180323666401655e-02,1.000676662389809318e-01,1.011318368808573620e-01,1.021040320945311441e-01,1.030207527423543518e-01,1.038448238569892740e-01,1.046147027648857558e-01,1.052900682723229009e-01,1.058807743454918682e-01,1.063947562970013194e-01,1.068285848574812291e-01,1.071689288921285343e-01,1.074108049878564203e-01,1.075575102457751037e-01,1.076301936630926770e-01,1.076177970754969709e-01,1.075093420942344336e-01,1.073240945077069131e-01,1.070191946334866639e-01,1.066477087184217465e-01,1.061871310333119128e-01,1.056476153961261044e-01,1.050126248286202268e-01,1.043003039380228231e-01,1.035212053544754818e-01,1.026490770882053094e-01,1.016787350929089784e-01,1.006712666678674650e-01,9.957890905621344380e-02,9.841935000220965180e-02,9.717955632246004505e-02,9.587761996225631356e-02,9.450665958077932027e-02,9.310416534813309442e-02,9.160476087226676611e-02,9.005361443244207231e-02,8.843970240296673835e-02,8.673561530715043211e-02,8.496271217351522576e-02,8.313503965374832716e-02,8.120439275970366133e-02,7.922103452784046151e-02,7.714525746247656579e-02,7.498904649009653645e-02,7.274995360981192927e-02,7.038540530697402764e-02,6.788576026210178804e-02,6.526933120136449440e-02,6.244716628634664618e-02,5.951530905479562872e-02,5.637146222707831167e-02,5.287254872870494893e-02,4.912915209401102351e-02,4.473604932269238665e-02,4.011639272854017335e-02,3.446397515155157076e-02,2.772842689524162435e-02,2.033346356460028620e-02,1.270182197158055415e-02,8.213019616619722518e-03,5.408540415219209585e-03,3.003839939636640533e-03,1.179590100527315531e-03,4.961885807522231672e-04,nan
nan,8.730223104605759664e-04,1.814353710808853937e-03,3.080932807891248459e-03,5.330557907804403354e-03,7.994725895389425199e-03,1.196603076812922939e-02,1.762194396995037798e-02,2.512862926991014240e-02,3.243113769704761978e-02,3.821674716735357080e-02,4.334452599968097175e-02,4.774007597638055961e-02,5.151858608675383144e-02,5.505402866372772347e-02,5.822857181333551679e-02,6.118842052411343352e-02,6.401335436419113012e-02,6.664915640765360638e-02,6.909120857907810609e-02,7.147316492897616558e-02,7.369994019226143445e-02,7.585414980244624406e-02,7.789653390910594721e-02,7.984747990012629193e-02,8.174709456727342893e-02,8.354539721727709256e-02,8.526172421604699680e-02,8.691922326584847203e-02,8.850199520643019235e-02,9.002215605607194471e-02,9.144676895986048049e-02,9.284346339091428812e-02,9.414969409933178490e-02,9.537962417208720178e-02,9.657287820240295639e-02,9.767078251754655882e-02,9.870863866708182166e-02,9.966815508545262547e-02,1.005453614498573456e-01,1.013642357266043709e-01,1.020959376993782058e-01,1.027485911281835751e-01,1.033261768907514644e-01,1.038254957251208838e-01,1.042201732470062758e-01,1.045707973732259988e-01,1.048054426579172749e-01,1.049555717142986316e-01,1.050220491978362952e-01,1.050151652265658847e-01,1.049163928157012121e-01,1.047094547509925533e-01,1.044380661990512854e-01,1.040746446218231702e-01,1.036188344041321929e-01,1.031080801008460723e-01,1.024752180058696727e-01,1.017966954471726110e-01,1.010372279535018403e-01,1.001674151216867675e-01,9.924891183611214696e-02,9.826536020048867726e-02,9.718906965851437096e-02,9.603843859387564685e-02,9.487180862946772986e-02,9.356787275907131607e-02,9.220773905388331138e-02,9.083467599155428673e-02,8.936133458086652215e-02,8.782112626977328640e-02,8.620361790462036100e-02,8.451776519942717780e-02,8.277162165644411096e-02,8.092274159901381714e-02,7.901371616827056188e-02,7.700734332846502495e-02,7.496294440016824934e-02,7.275904226577969980e-02,7.049770957270098948e-02,6.808406407837458429e-02,6.551725809528244349e-02,6.284391261181244970e-02,5.998817959346908202e-02,5.686405942104073158e-02,5.355022006597649070e-02,4.998435021590308391e-02,4.576163461238928060e-02,4.138241728624782872e-02,3.598997035076109685e-02,2.980818667059548233e-02,2.221873166704628130e-02,1.480672463132737607e-02,9.443673358578104360e-03,6.652712317933983689e-03,4.496334470642016079e-03,2.483021484433457077e-03,1.112811719112078270e-03,2.492206645938356145e-04,nan
nan,4.292013630762718328e-04,1.027527004297548296e-03,2.182434559266138632e-03,3.955470033034348687e-03,6.255359893100068125e-03,9.019081007448758597e-03,1.370238865027920833e-02,1.958992595170036891e-02,2.716008209202210727e-02,3.360941189336388857e-02,3.924694989280629737e-02,4.429373689676478071e-02,4.820030765175227494e-02,5.217571971172560441e-02,5.545664533290835252e-02,5.855685016307585894e-02,6.144396132262398835e-02,6.413953356620252788e-02,6.669339860680190135e-02,6.905771618040593141e-02,7.136753793321770623e-02,7.352426139179164821e-02,7.555176400838117812e-02,7.756234657548066735e-02,7.942460014094243625e-02,8.124103078791113097e-02,8.297482409327426589e-02,8.460688477478728320e-02,8.619244679411414145e-02,8.769935585353838547e-02,8.911523814718246006e-02,9.047487916251523155e-02,9.177584817857879773e-02,9.301072173188058845e-02,9.415154712307116647e-02,9.523680338645744425e-02,9.625746153933806282e-02,9.718470558252487179e-02,9.805790137929432104e-02,9.884634004107159533e-02,9.956571486368893942e-02,1.001980993560928485e-01,1.007611051522493695e-01,1.012532624845804419e-01,1.016416328053717510e-01,1.019541111592676408e-01,1.021992498443445446e-01,1.023498839350649725e-01,1.024082093010094952e-01,1.023968010740922419e-01,1.022968810318332922e-01,1.021051634372285716e-01,1.018469609773896001e-01,1.014876587062609192e-01,1.010585627538704567e-01,1.005395802068946021e-01,9.994426040405914036e-02,9.927704938860545947e-02,9.850224374583665954e-02,9.769819761514364487e-02,9.680414634609840752e-02,9.581921776678899161e-02,9.476175105236442353e-02,9.362686755410548622e-02,9.248407986530778058e-02,9.141473191963198075e-02,8.990615172690488710e-02,8.854584324440037402e-02,8.706783865755304830e-02,8.553452699113688051e-02,8.391500643583582608e-02,8.223999936022913237e-02,8.046792792892169810e-02,7.865397882848214339e-02,7.672233182199486579e-02,7.471829963489705351e-02,7.261695266185286268e-02,7.043172171595971087e-02,6.808682950620668917e-02,6.560301761570722090e-02,6.303523290953741420e-02,6.015760640697150052e-02,5.728436016443837209e-02,5.404834079797454782e-02,5.048092003222970359e-02,4.672469108542588734e-02,4.239816983443117637e-02,3.716600178714490194e-02,3.144421953047775442e-02,2.433237722040088383e-02,1.688558977349376156e-02,1.070989020558306241e-02,7.568796074075927714e-03,5.599070358801677000e-03,3.671287705394410059e-03,1.940070162393493520e-03,6.414553498001710104e-04,1.135554056648215921e-04,nan
nan,1.039846239664188294e-04,5.781416811663828538e-04,1.366802412012077528e-03,2.917973724190286652e-03,4.821110548663709930e-03,7.545406763623272416e-03,1.011866422970580416e-02,1.465498737054968421e-02,2.115312020673966453e-02,2.847640961375533936e-02,3.481159311223341879e-02,4.026666035836401480e-02,4.490443126295223103e-02,4.893373723766081262e-02,5.247040142138799379e-02,5.568423857781746450e-02,5.868416470481473135e-02,6.144526807401244628e-02,6.407036459023848773e-02,6.653750818777179332e-02,6.883555189452361667e-02,7.103992629551522664e-02,7.315517610989527575e-02,7.515442149710396813e-02,7.706878585063986487e-02,7.886315785344785723e-02,8.058519833056891624e-02,8.224549695813532235e-02,8.379535054959004470e-02,8.529632763138868257e-02,8.671091312156126163e-02,8.808847385592315227e-02,8.937072883476354646e-02,9.057774357184034120e-02,9.171123881519933907e-02,9.277941245526066805e-02,9.377124812945433763e-02,9.470431119246303098e-02,9.554733414015317838e-02,9.631474370268791607e-02,9.700441651576804936e-02,9.764731475195126409e-02,9.818962066436190406e-02,9.866557154833258125e-02,9.905013335451051670e-02,9.934696855634267409e-02,9.957635630284511485e-02,9.973275974652882903e-02,9.979215319568281173e-02,9.977787979133907748e-02,9.967791364542269439e-02,9.950738490520466550e-02,9.922114546140073377e-02,9.888474047276636647e-02,9.847212885435494001e-02,9.796711931517780581e-02,9.738421022750172462e-02,9.674103390487712173e-02,9.598364799483741217e-02,9.519449481243016931e-02,9.431292491458674598e-02,9.333610429763128380e-02,9.229885980203748896e-02,9.119900694358179516e-02,9.002179488995568080e-02,8.901423805266460432e-02,8.757195554389307635e-02,8.620825617388719331e-02,8.470802092537685346e-02,8.316718640308212729e-02,8.158325650821032782e-02,7.987465218516909271e-02,7.811689084098899505e-02,7.626367971193007134e-02,7.434394059277171785e-02,7.231153168089947403e-02,7.018569128414270386e-02,6.795983239450217872e-02,6.557976515551162955e-02,6.306025686786870255e-02,6.035372174224849784e-02,5.749603281728113413e-02,5.437908522041838555e-02,5.099033137340065747e-02,4.729903604784261445e-02,4.317739149993240350e-02,3.821783959214933302e-02,3.220598583757600802e-02,2.539640682240720815e-02,1.867590747004923418e-02,1.217915127667827668e-02,8.659458879397209652e-03,5.797727820454980779e-03,4.162833522676762446e-03,2.352390649818693422e-03,9.873895741688474247e-04,2.560529965059904034e-04,7.336288240415765691e-05,nan
nan,5.546054869728114068e-05,2.580040365197372042e-04,8.946067295046742718e-04,1.814412872133676314e-03,3.594812268641791719e-03,5.485640812672745031e-03,7.720370888606305562e-03,1.090981288852111916e-02,1.599880190598284083e-02,2.245267497591649578e-02,2.953070981156584451e-02,3.602791880854378653e-02,4.102453595622540528e-02,4.536750805159116967e-02,4.903704001535170998e-02,5.258094166577124973e-02,5.567310925769887453e-02,5.859337523283529581e-02,6.127712880397068185e-02,6.382029422985005529e-02,6.624794925125919443e-02,6.851208548031520462e-02,7.061294156511860320e-02,7.264432723014108140e-02,7.457476755768115140e-02,7.639494368899858723e-02,7.813985881573153047e-02,7.981073878473803063e-02,8.135740407125097162e-02,8.284569117189120868e-02,8.427126665994549848e-02,8.561860287051561991e-02,8.689363544093596514e-02,8.809661511063443529e-02,8.923017778489031326e-02,9.026730320108740380e-02,9.123521230938413940e-02,9.215983690091868186e-02,9.299313067239758923e-02,9.375700048834550993e-02,9.444972323634961975e-02,9.505284337941465045e-02,9.559280573189099517e-02,9.605128507120275216e-02,9.643063095597939616e-02,9.672239436781474020e-02,9.694373626510972841e-02,9.708838385070439614e-02,9.715554106222393238e-02,9.713313795222659752e-02,9.704785279866937064e-02,9.687237953822989966e-02,9.661081580345777520e-02,9.627586464626011753e-02,9.586454895899629292e-02,9.536452723972921319e-02,9.481475418571086444e-02,9.414315141550293198e-02,9.343829791328056578e-02,9.264165486351472190e-02,9.176944130656355947e-02,9.083714495059712346e-02,8.980786356761238931e-02,8.872972540108803319e-02,8.760250932838706261e-02,8.644358870987298160e-02,8.519670136796664295e-02,8.378120035483396788e-02,8.228296546653621202e-02,8.075440364795603843e-02,7.912779536576969308e-02,7.742265278523638439e-02,7.564668541884995989e-02,7.377926085155295244e-02,7.181647300671407941e-02,6.978027038178624686e-02,6.759159314621253356e-02,6.528908484026636760e-02,6.288988308928609994e-02,6.028892474256042355e-02,5.743743440633873598e-02,5.449876749602039494e-02,5.114746285555027416e-02,4.760483726150636918e-02,4.350407867868133494e-02,3.894885681397021460e-02,3.335972013983746348e-02,2.650123037207321661e-02,1.863763544607812891e-02,1.362251827272312373e-02,9.031657163776910663e-03,6.174821053837070695e-03,4.289010207828359775e-03,2.616365879255987299e-03,1.202540638167745634e-03,4.714535549237108651e-04,7.848906980231353339e-05,1.657468950594139775e-05,nan
