nan,0.000000000000000000e+00,0.000000000000000000e+00,0.000000000000000000e+00,0.000000000000000000e+00,0.000000000000000000e+00,0.000000000000000000e+00,0.000000000000000000e+00,0.000000000000000000e+00,0.000000000000000000e+00,0.000000000000000000e+00,0.000000000000000000e+00,0.000000000000000000e+00,0.000000000000000000e+00,0.000000000000000000e+00,0.000000000000000000e+00,0.000000000000000000e+00,0.000000000000000000e+00,0.000000000000000000e+00,0.000000000000000000e+00,0.000000000000000000e+00,0.000000000000000000e+00,0.000000000000000000e+00,0.000000000000000000e+00,0.000000000000000000e+00,0.000000000000000000e+00,0.000000000000000000e+00,0.000000000000000000e+00,0.000000000000000000e+00,0.000000000000000000e+00,0.000000000000000000e+00,0.000000000000000000e+00,0.000000000000000000e+00,0.000000000000000000e+00,0.000000000000000000e+00,0.000000000000000000e+00,0.000000000000000000e+00,0.000000000000000000e+00,0.000000000000000000e+00,0.000000000000000000e+00,0.000000000000000000e+00,0.000000000000000000e+00,0.000000000000000000e+00,0.000000000000000000e+00,0.000000000000000000e+00,2.817231068178032566e-02,2.544783908768311620e-01,2.549485273410077024e-01,2.572007053819020950e-01,2.577441601630048873e-01,2.561260037922177824e-01,2.554844923585186112e-01,2.547852502697989241e-01,1.883146573291162862e-01,1.991401958861369753e-02,0.000000000000000000e+00,0.000000000000000000e+00,0.000000000000000000e+00,0.000000000000000000e+00,0.000000000000000000e+00,0.000000000000000000e+00,0.000000000000000000e+00,0.000000000000000000e+00,0.000000000000000000e+00,0.000000000000000000e+00,0.000000000000000000e+00,0.000000000000000000e+00,0.000000000000000000e+00,0.000000000000000000e+00,0.000000000000000000e+00,0.000000000000000000e+00,0.000000000000000000e+00,0.000000000000000000e+00,0.000000000000000000e+00,0.000000000000000000e+00,0.000000000000000000e+00,0.000000000000000000e+00,0.000000000000000000e+00,0.000000000000000000e+00,0.000000000000000000e+00,0.000000000000000000e+00,0.000000000000000000e+00,0.000000000000000000e+00,0.000000000000000000e+00,0.000000000000000000e+00,0.000000000000000000e+00,0.000000000000000000e+00,0.000000000000000000e+00,0.000000000000000000e+00,0.000000000000000000e+00,0.000000000000000000e+00,0.000000000000000000e+00,0.000000000000000000e+00,0.000000000000000000e+00,0.000000000000000000e+00,0.000000000000000000e+00,0.000000000000000000e+00,0.000000000000000000e+00,0.000000000000000000e+00,nan
nan,0.000000000000000000e+00,0.000000000000000000e+00,0.000000000000000000e+00,0.000000000000000000e+00,0.000000000000000000e+00,0.000000000000000000e+00,0.000000000000000000e+00,0.000000000000000000e+00,0.000000000000000000e+00,0.000000000000000000e+00,0.000000000000000000e+00,0.000000000000000000e+00,0.000000000000000000e+00,0.000000000000000000e+00,0.000000000000000000e+00,0.000000000000000000e+00,0.000000000000000000e+00,0.000000000000000000e+00,0.000000000000000000e+00,0.000000000000000000e+00,0.000000000000000000e+00,0.000000000000000000e+00,0.000000000000000000e+00,0.000000000000000000e+00,0.000000000000000000e+00,0.000000000000000000e+00,0.000000000000000000e+00,0.000000000000000000e+00,0.000000000000000000e+00,0.000000000000000000e+00,0.000000000000000000e+00,0.000000000000000000e+00,0.000000000000000000e+00,0.000000000000000000e+00,0.000000000000000000e+00,0.000000000000000000e+00,0.000000000000000000e+00,0.000000000000000000e+00,0.000000000000000000e+00,0.000000000000000000e+00,0.000000000000000000e+00,0.000000000000000000e+00,0.000000000000000000e+00,0.000000000000000000e+00,1.246319957628563152e-01,2.543905776726640977e-01,2.578973271743892903e-01,2.565274381231225087e-01,2.566326543280851302e-01,2.584733345990712361e-01,2.565943993971224746e-01,2.519974378856902342e-01,2.487255143496582555e-01,5.354349981424409016e-02,0.000000000000000000e+00,0.000000000000000000e+00,0.000000000000000000e+00,0.000000000000000000e+00,0.000000000000000000e+00,0.000000000000000000e+00,0.000000000000000000e+00,0.000000000000000000e+00,0.000000000000000000e+00,0.000000000000000000e+00,0.000000000000000000e+00,0.000000000000000000e+00,0.000000000000000000e+00,0.000000000000000000e+00,0.000000000000000000e+00,0.000000000000000000e+00,0.000000000000000000e+00,0.000000000000000000e+00,0.000000000000000000e+00,0.000000000000000000e+00,0.000000000000000000e+00,0.000000000000000000e+00,0.000000000000000000e+00,0.000000000000000000e+00,0.000000000000000000e+00,0.000000000000000000e+00,0.000000000000000000e+00,0.000000000000000000e+00,0.000000000000000000e+00,0.000000000000000000e+00,0.000000000000000000e+00,0.000000000000000000e+00,0.000000000000000000e+00,0.000000000000000000e+00,0.000000000000000000e+00,0.000000000000000000e+00,0.000000000000000000e+00,0.000000000000000000e+00,0.000000000000000000e+00,0.000000000000000000e+00,0.000000000000000000e+00,0.000000000000000000e+00,0.000000000000000000e+00,0.000000000000000000e+00,nan
nan,0.000000000000000000e+00,0.000000000000000000e+00,0.000000000000000000e+00,0.000000000000000000e+00,0.000000000000000000e+00,0.000000000000000000e+00,0.000000000000000000e+00,0.000000000000000000e+00,0.000000000000000000e+00,0.000000000000000000e+00,0.000000000000000000e+00,0.000000000000000000e+00,0.000000000000000000e+00,0.000000000000000000e+00,0.000000000000000000e+00,0.000000000000000000e+00,0.000000000000000000e+00,0.000000000000000000e+00,0.000000000000000000e+00,0.000000000000000000e+00,0.000000000000000000e+00,0.000000000000000000e+00,0.000000000000000000e+00,0.000000000000000000e+00,0.000000000000000000e+00,0.000000000000000000e+00,0.000000000000000000e+00,0.000000000000000000e+00,0.000000000000000000e+00,0.000000000000000000e+00,0.000000000000000000e+00,0.000000000000000000e+00,0.000000000000000000e+00,0.000000000000000000e+00,0.000000000000000000e+00,0.000000000000000000e+00,0.000000000000000000e+00,0.000000000000000000e+00,0.000000000000000000e+00,0.000000000000000000e+00,0.000000000000000000e+00,0.000000000000000000e+00,0.000000000000000000e+00,0.000000000000000000e+00,5.735800304133441274e-02,2.616894437620743141e-01,2.591276851561273853e-01,2.573825024751551505e-01,2.561401916563549874e-01,2.567943884590542236e-01,2.562994985988868990e-01,2.536472391883392019e-01,2.534380159164401070e-01,9.620775409332345263e-02,0.000000000000000000e+00,0.000000000000000000e+00,0.000000000000000000e+00,0.000000000000000000e+00,0.000000000000000000e+00,0.000000000000000000e+00,0.000000000000000000e+00,0.000000000000000000e+00,0.000000000000000000e+00,0.000000000000000000e+00,0.000000000000000000e+00,0.000000000000000000e+00,0.000000000000000000e+00,0.000000000000000000e+00,0.000000000000000000e+00,0.000000000000000000e+00,0.000000000000000000e+00,0.000000000000000000e+00,0.000000000000000000e+00,0.000000000000000000e+00,0.000000000000000000e+00,0.000000000000000000e+00,0.000000000000000000e+00,0.000000000000000000e+00,0.000000000000000000e+00,0.000000000000000000e+00,0.000000000000000000e+00,0.000000000000000000e+00,0.000000000000000000e+00,0.000000000000000000e+00,0.000000000000000000e+00,0.000000000000000000e+00,0.000000000000000000e+00,0.000000000000000000e+00,0.000000000000000000e+00,0.000000000000000000e+00,0.000000000000000000e+00,0.000000000000000000e+00,0.000000000000000000e+00,0.000000000000000000e+00,0.000000000000000000e+00,0.000000000000000000e+00,0.000000000000000000e+00,0.000000000000000000e+00,nan
nan,0.000000000000000000e+00,0.000000000000000000e+00,0.000000000000000000e+00,0.000000000000000000e+00,0.000000000000000000e+00,0.000000000000000000e+00,0.000000000000000000e+00,0.000000000000000000e+00,0.000000000000000000e+00,0.000000000000000000e+00,0.000000000000000000e+00,0.000000000000000000e+00,0.000000000000000000e+00,0.000000000000000000e+00,0.000000000000000000e+00,0.000000000000000000e+00,0.000000000000000000e+00,0.000000000000000000e+00,0.000000000000000000e+00,0.000000000000000000e+00,0.000000000000000000e+00,0.000000000000000000e+00,0.000000000000000000e+00,0.000000000000000000e+00,0.000000000000000000e+00,0.000000000000000000e+00,0.000000000000000000e+00,0.000000000000000000e+00,0.000000000000000000e+00,0.000000000000000000e+00,0.000000000000000000e+00,0.000000000000000000e+00,0.000000000000000000e+00,0.000000000000000000e+00,0.000000000000000000e+00,0.000000000000000000e+00,0.000000000000000000e+00,0.000000000000000000e+00,0.000000000000000000e+00,0.000000000000000000e+00,0.000000000000000000e+00,0.000000000000000000e+00,0.000000000000000000e+00,0.000000000000000000e+00,1.935693090005471406e-01,2.672429555459657213e-01,2.648033213724691470e-01,2.611383547349894196e-01,2.599077268673013474e-01,2.568252961845604587e-01,2.593697382235995441e-01,2.582552440541380778e-01,2.562535499883845658e-01,1.357241635934934576e-01,0.000000000000000000e+00,0.000000000000000000e+00,0.000000000000000000e+00,0.000000000000000000e+00,0.000000000000000000e+00,0.000000000000000000e+00,0.000000000000000000e+00,0.000000000000000000e+00,0.000000000000000000e+00,0.000000000000000000e+00,0.000000000000000000e+00,0.000000000000000000e+00,0.000000000000000000e+00,0.000000000000000000e+00,0.000000000000000000e+00,0.000000000000000000e+00,0.000000000000000000e+00,0.000000000000000000e+00,0.000000000000000000e+00,0.000000000000000000e+00,0.000000000000000000e+00,0.000000000000000000e+00,0.000000000000000000e+00,0.000000000000000000e+00,0.000000000000000000e+00,0.000000000000000000e+00,0.000000000000000000e+00,0.000000000000000000e+00,0.000000000000000000e+00,0.000000000000000000e+00,0.000000000000000000e+00,0.000000000000000000e+00,0.000000000000000000e+00,0.000000000000000000e+00,0.000000000000000000e+00,0.000000000000000000e+00,0.000000000000000000e+00,0.000000000000000000e+00,0.000000000000000000e+00,0.000000000000000000e+00,0.000000000000000000e+00,0.000000000000000000e+00,0.000000000000000000e+00,0.000000000000000000e+00,nan
nan,0.000000000000000000e+00,0.000000000000000000e+00,0.000000000000000000e+00,0.000000000000000000e+00,0.000000000000000000e+00,0.000000000000000000e+00,0.000000000000000000e+00,0.000000000000000000e+00,0.000000000000000000e+00,0.000000000000000000e+00,0.000000000000000000e+00,0.000000000000000000e+00,0.000000000000000000e+00,0.000000000000000000e+00,0.000000000000000000e+00,0.000000000000000000e+00,0.000000000000000000e+00,0.000000000000000000e+00,0.000000000000000000e+00,0.000000000000000000e+00,0.000000000000000000e+00,0.000000000000000000e+00,0.000000000000000000e+00,0.000000000000000000e+00,0.000000000000000000e+00,0.000000000000000000e+00,0.000000000000000000e+00,0.000000000000000000e+00,0.000000000000000000e+00,0.000000000000000000e+00,0.000000000000000000e+00,0.000000000000000000e+00,0.000000000000000000e+00,0.000000000000000000e+00,0.000000000000000000e+00,0.000000000000000000e+00,0.000000000000000000e+00,0.000000000000000000e+00,0.000000000000000000e+00,0.000000000000000000e+00,0.000000000000000000e+00,0.000000000000000000e+00,0.000000000000000000e+00,0.000000000000000000e+00,4.325361762799759952e-02,2.596870916217850489e-01,2.609797453176696536e-01,2.614314310426759658e-01,2.601123985620018564e-01,2.603051507548212462e-01,2.604901058216939624e-01,2.590820580765052505e-01,2.582822784136030725e-01,1.726775917714783171e-01,0.000000000000000000e+00,0.000000000000000000e+00,0.000000000000000000e+00,0.000000000000000000e+00,0.000000000000000000e+00,0.000000000000000000e+00,0.000000000000000000e+00,0.000000000000000000e+00,0.000000000000000000e+00,0.000000000000000000e+00,0.000000000000000000e+00,0.000000000000000000e+00,0.000000000000000000e+00,0.000000000000000000e+00,0.000000000000000000e+00,0.000000000000000000e+00,0.000000000000000000e+00,0.000000000000000000e+00,0.000000000000000000e+00,0.000000000000000000e+00,0.000000000000000000e+00,0.000000000000000000e+00,0.000000000000000000e+00,0.000000000000000000e+00,0.000000000000000000e+00,0.000000000000000000e+00,0.000000000000000000e+00,0.000000000000000000e+00,0.000000000000000000e+00,0.000000000000000000e+00,0.000000000000000000e+00,0.000000000000000000e+00,0.000000000000000000e+00,0.000000000000000000e+00,0.000000000000000000e+00,0.000000000000000000e+00,0.000000000000000000e+00,0.000000000000000000e+00,0.000000000000000000e+00,0.000000000000000000e+00,0.000000000000000000e+00,0.000000000000000000e+00,0.000000000000000000e+00,0.000000000000000000e+00,nan
nan,0.000000000000000000e+00,0.000000000000000000e+00,0.000000000000000000e+00,0.000000000000000000e+00,0.000000000000000000e+00,0.000000000000000000e+00,0.000000000000000000e+00,0.000000000000000000e+00,0.000000000000000000e+00,0.000000000000000000e+00,0.000000000000000000e+00,0.000000000000000000e+00,0.000000000000000000e+00,0.000000000000000000e+00,0.000000000000000000e+00,0.000000000000000000e+00,0.000000000000000000e+00,0.000000000000000000e+00,0.000000000000000000e+00,0.000000000000000000e+00,0.000000000000000000e+00,0.000000000000000000e+00,0.000000000000000000e+00,0.000000000000000000e+00,0.000000000000000000e+00,0.000000000000000000e+00,0.000000000000000000e+00,0.000000000000000000e+00,0.000000000000000000e+00,0.000000000000000000e+00,0.000000000000000000e+00,0.000000000000000000e+00,0.000000000000000000e+00,0.000000000000000000e+00,0.000000000000000000e+00,0.000000000000000000e+00,0.000000000000000000e+00,0.000000000000000000e+00,0.000000000000000000e+00,0.000000000000000000e+00,0.000000000000000000e+00,0.000000000000000000e+00,0.000000000000000000e+00,0.000000000000000000e+00,1.903131371605192301e-01,2.515449841339666981e-01,2.594314819305266195e-01,2.604942728591350676e-01,2.614080406159353109e-01,2.623683465964679606e-01,2.644061761630925322e-01,2.646455453610686570e-01,2.629966255710960987e-01,9.341475071443952616e-02,0.000000000000000000e+00,0.000000000000000000e+00,0.000000000000000000e+00,0.000000000000000000e+00,0.000000000000000000e+00,0.000000000000000000e+00,0.000000000000000000e+00,0.000000000000000000e+00,0.000000000000000000e+00,0.000000000000000000e+00,0.000000000000000000e+00,0.000000000000000000e+00,0.000000000000000000e+00,0.000000000000000000e+00,0.000000000000000000e+00,0.000000000000000000e+00,0.000000000000000000e+00,0.000000000000000000e+00,0.000000000000000000e+00,0.000000000000000000e+00,0.000000000000000000e+00,0.000000000000000000e+00,0.000000000000000000e+00,0.000000000000000000e+00,0.000000000000000000e+00,0.000000000000000000e+00,0.000000000000000000e+00,0.000000000000000000e+00,0.000000000000000000e+00,0.000000000000000000e+00,0.000000000000000000e+00,0.000000000000000000e+00,0.000000000000000000e+00,0.000000000000000000e+00,0.000000000000000000e+00,0.000000000000000000e+00,0.000000000000000000e+00,0.000000000000000000e+00,0.000000000000000000e+00,0.000000000000000000e+00,0.000000000000000000e+00,0.000000000000000000e+00,0.000000000000000000e+00,0.000000000000000000e+00,nan
nan,0.000000000000000000e+00,0.000000000000000000e+00,0.000000000000000000e+00,0.000000000000000000e+00,0.000000000000000000e+00,0.000000000000000000e+00,0.000000000000000000e+00,0.000000000000000000e+00,0.000000000000000000e+00,0.000000000000000000e+00,0.000000000000000000e+00,0.000000000000000000e+00,0.000000000000000000e+00,0.000000000000000000e+00,0.000000000000000000e+00,0.000000000000000000e+00,0.000000000000000000e+00,0.000000000000000000e+00,0.000000000000000000e+00,0.000000000000000000e+00,0.000000000000000000e+00,0.000000000000000000e+00,0.000000000000000000e+00,0.000000000000000000e+00,0.000000000000000000e+00,0.000000000000000000e+00,0.000000000000000000e+00,0.000000000000000000e+00,0.000000000000000000e+00,0.000000000000000000e+00,0.000000000000000000e+00,0.000000000000000000e+00,0.000000000000000000e+00,0.000000000000000000e+00,0.000000000000000000e+00,0.000000000000000000e+00,0.000000000000000000e+00,0.000000000000000000e+00,0.000000000000000000e+00,0.000000000000000000e+00,0.000000000000000000e+00,0.000000000000000000e+00,0.000000000000000000e+00,0.000000000000000000e+00,1.131763576277784594e-01,2.594044512901549915e-01,2.602612439677249312e-01,2.624966616698476418e-01,2.644077693873804202e-01,2.676026835109688307e-01,2.688354755719862821e-01,2.688971504596792128e-01,2.701419271781795306e-01,1.941108797674301889e-01,0.000000000000000000e+00,0.000000000000000000e+00,0.000000000000000000e+00,0.000000000000000000e+00,0.000000000000000000e+00,0.000000000000000000e+00,0.000000000000000000e+00,0.000000000000000000e+00,0.000000000000000000e+00,0.000000000000000000e+00,0.000000000000000000e+00,0.000000000000000000e+00,0.000000000000000000e+00,0.000000000000000000e+00,0.000000000000000000e+00,0.000000000000000000e+00,0.000000000000000000e+00,0.000000000000000000e+00,0.000000000000000000e+00,0.000000000000000000e+00,0.000000000000000000e+00,0.000000000000000000e+00,0.000000000000000000e+00,0.000000000000000000e+00,0.000000000000000000e+00,0.000000000000000000e+00,0.000000000000000000e+00,0.000000000000000000e+00,0.000000000000000000e+00,0.000000000000000000e+00,0.000000000000000000e+00,0.000000000000000000e+00,0.000000000000000000e+00,0.000000000000000000e+00,0.000000000000000000e+00,0.000000000000000000e+00,0.000000000000000000e+00,0.000000000000000000e+00,0.000000000000000000e+00,0.000000000000000000e+00,0.000000000000000000e+00,0.000000000000000000e+00,0.000000000000000000e+00,0.000000000000000000e+00,nan
nan,0.000000000000000000e+00,0.000000000000000000e+00,0.000000000000000000e+00,0.000000000000000000e+00,0.000000000000000000e+00,0.000000000000000000e+00,0.000000000000000000e+00,0.000000000000000000e+00,0.000000000000000000e+00,0.000000000000000000e+00,0.000000000000000000e+00,0.000000000000000000e+00,0.000000000000000000e+00,0.000000000000000000e+00,0.000000000000000000e+00,0.000000000000000000e+00,0.000000000000000000e+00,0.000000000000000000e+00,0.000000000000000000e+00,0.000000000000000000e+00,0.000000000000000000e+00,0.000000000000000000e+00,0.000000000000000000e+00,0.000000000000000000e+00,0.000000000000000000e+00,0.000000000000000000e+00,0.000000000000000000e+00,0.000000000000000000e+00,0.000000000000000000e+00,0.000000000000000000e+00,0.000000000000000000e+00,0.000000000000000000e+00,0.000000000000000000e+00,0.000000000000000000e+00,0.000000000000000000e+00,0.000000000000000000e+00,0.000000000000000000e+00,0.000000000000000000e+00,0.000000000000000000e+00,0.000000000000000000e+00,0.000000000000000000e+00,0.000000000000000000e+00,0.000000000000000000e+00,0.000000000000000000e+00,1.638484271750567378e-01,2.649590826425019530e-01,2.623811731234690359e-01,2.648040178938784184e-01,2.671967244447565615e-01,2.705557548861143857e-01,2.729490026169786310e-01,2.746870294941993196e-01,2.777490065579997225e-01,1.669141172097668990e-01,0.000000000000000000e+00,0.000000000000000000e+00,0.000000000000000000e+00,0.000000000000000000e+00,0.000000000000000000e+00,0.000000000000000000e+00,0.000000000000000000e+00,0.000000000000000000e+00,0.000000000000000000e+00,0.000000000000000000e+00,0.000000000000000000e+00,0.000000000000000000e+00,0.000000000000000000e+00,0.000000000000000000e+00,0.000000000000000000e+00,0.000000000000000000e+00,0.000000000000000000e+00,0.000000000000000000e+00,0.000000000000000000e+00,0.000000000000000000e+00,0.000000000000000000e+00,0.000000000000000000e+00,0.000000000000000000e+00,0.000000000000000000e+00,0.000000000000000000e+00,0.000000000000000000e+00,0.000000000000000000e+00,0.000000000000000000e+00,0.000000000000000000e+00,0.000000000000000000e+00,0.000000000000000000e+00,0.000000000000000000e+00,0.000000000000000000e+00,0.000000000000000000e+00,0.000000000000000000e+00,0.000000000000000000e+00,0.000000000000000000e+00,0.000000000000000000e+00,0.000000000000000000e+00,0.000000000000000000e+00,0.000000000000000000e+00,0.000000000000000000e+00,0.000000000000000000e+00,0.000000000000000000e+00,nan
nan,0.000000000000000000e+00,0.000000000000000000e+00,0.000000000000000000e+00,0.000000000000000000e+00,0.000000000000000000e+00,0.000000000000000000e+00,0.000000000000000000e+00,0.000000000000000000e+00,0.000000000000000000e+00,0.000000000000000000e+00,0.000000000000000000e+00,0.000000000000000000e+00,0.000000000000000000e+00,0.000000000000000000e+00,0.000000000000000000e+00,0.000000000000000000e+00,0.000000000000000000e+00,0.000000000000000000e+00,0.000000000000000000e+00,0.000000000000000000e+00,0.000000000000000000e+00,0.000000000000000000e+00,0.000000000000000000e+00,0.000000000000000000e+00,0.000000000000000000e+00,0.000000000000000000e+00,0.000000000000000000e+00,0.000000000000000000e+00,0.000000000000000000e+00,0.000000000000000000e+00,0.000000000000000000e+00,0.000000000000000000e+00,0.000000000000000000e+00,0.000000000000000000e+00,0.000000000000000000e+00,0.000000000000000000e+00,0.000000000000000000e+00,0.000000000000000000e+00,0.000000000000000000e+00,0.000000000000000000e+00,0.000000000000000000e+00,0.000000000000000000e+00,0.000000000000000000e+00,0.000000000000000000e+00,9.513395092330811931e-02,2.243675479546870244e-01,2.638223538059574769e-01,2.651431337208646211e-01,2.688417159941751122e-01,2.712183351165970424e-01,2.739404723303099365e-01,2.799704438651657301e-01,2.870602467537640701e-01,1.222037249453671731e-01,0.000000000000000000e+00,0.000000000000000000e+00,0.000000000000000000e+00,0.000000000000000000e+00,0.000000000000000000e+00,0.000000000000000000e+00,0.000000000000000000e+00,0.000000000000000000e+00,0.000000000000000000e+00,0.000000000000000000e+00,0.000000000000000000e+00,0.000000000000000000e+00,0.000000000000000000e+00,0.000000000000000000e+00,0.000000000000000000e+00,0.000000000000000000e+00,0.000000000000000000e+00,0.000000000000000000e+00,0.000000000000000000e+00,0.000000000000000000e+00,0.000000000000000000e+00,0.000000000000000000e+00,0.000000000000000000e+00,0.000000000000000000e+00,0.000000000000000000e+00,0.000000000000000000e+00,0.000000000000000000e+00,0.000000000000000000e+00,0.000000000000000000e+00,0.000000000000000000e+00,0.000000000000000000e+00,0.000000000000000000e+00,0.000000000000000000e+00,0.000000000000000000e+00,0.000000000000000000e+00,0.000000000000000000e+00,0.000000000000000000e+00,0.000000000000000000e+00,0.000000000000000000e+00,0.000000000000000000e+00,0.000000000000000000e+00,0.000000000000000000e+00,0.000000000000000000e+00,0.000000000000000000e+00,nan
nan,0.000000000000000000e+00,0.000000000000000000e+00,0.000000000000000000e+00,0.000000000000000000e+00,0.000000000000000000e+00,0.000000000000000000e+00,0.000000000000000000e+00,0.000000000000000000e+00,0.000000000000000000e+00,0.000000000000000000e+00,0.000000000000000000e+00,0.000000000000000000e+00,0.000000000000000000e+00,0.000000000000000000e+00,0.000000000000000000e+00,0.000000000000000000e+00,0.000000000000000000e+00,0.000000000000000000e+00,0.000000000000000000e+00,0.000000000000000000e+00,0.000000000000000000e+00,0.000000000000000000e+00,0.000000000000000000e+00,0.000000000000000000e+00,0.000000000000000000e+00,0.000000000000000000e+00,0.000000000000000000e+00,0.000000000000000000e+00,0.000000000000000000e+00,0.000000000000000000e+00,0.000000000000000000e+00,0.000000000000000000e+00,0.000000000000000000e+00,0.000000000000000000e+00,0.000000000000000000e+00,0.000000000000000000e+00,0.000000000000000000e+00,0.000000000000000000e+00,0.000000000000000000e+00,0.000000000000000000e+00,0.000000000000000000e+00,0.000000000000000000e+00,0.000000000000000000e+00,0.000000000000000000e+00,1.500105197540782531e-01,2.655642262953537558e-01,2.702660333888583510e-01,2.707157780202704700e-01,2.723771531922725142e-01,2.738214151475590330e-01,2.726302535179176423e-01,2.707328811977013361e-01,2.664691410876663391e-01,1.476977555152118315e-01,0.000000000000000000e+00,0.000000000000000000e+00,0.000000000000000000e+00,0.000000000000000000e+00,0.000000000000000000e+00,0.000000000000000000e+00,0.000000000000000000e+00,0.000000000000000000e+00,0.000000000000000000e+00,0.000000000000000000e+00,0.000000000000000000e+00,0.000000000000000000e+00,0.000000000000000000e+00,0.000000000000000000e+00,0.000000000000000000e+00,0.000000000000000000e+00,0.000000000000000000e+00,0.000000000000000000e+00,0.000000000000000000e+00,0.000000000000000000e+00,0.000000000000000000e+00,0.000000000000000000e+00,0.000000000000000000e+00,0.000000000000000000e+00,0.000000000000000000e+00,0.000000000000000000e+00,0.000000000000000000e+00,0.000000000000000000e+00,0.000000000000000000e+00,0.000000000000000000e+00,0.000000000000000000e+00,0.000000000000000000e+00,0.000000000000000000e+00,0.000000000000000000e+00,0.000000000000000000e+00,0.000000000000000000e+00,0.000000000000000000e+00,0.000000000000000000e+00,0.000000000000000000e+00,0.000000000000000000e+00,0.000000000000000000e+00,0.000000000000000000e+00,0.000000000000000000e+00,0.000000000000000000e+00,nan
nan,0.000000000000000000e+00,0.000000000000000000e+00,0.000000000000000000e+00,0.000000000000000000e+00,0.000000000000000000e+00,0.000000000000000000e+00,0.000000000000000000e+00,0.000000000000000000e+00,0.000000000000000000e+00,0.000000000000000000e+00,0.000000000000000000e+00,0.000000000000000000e+00,0.000000000000000000e+00,0.000000000000000000e+00,0.000000000000000000e+00,0.000000000000000000e+00,4.970026677214825495e-02,4.268638944183185402e-02,0.000000000000000000e+00,0.000000000000000000e+00,0.000000000000000000e+00,0.000000000000000000e+00,0.000000000000000000e+00,0.000000000000000000e+00,0.000000000000000000e+00,0.000000000000000000e+00,0.000000000000000000e+00,0.000000000000000000e+00,0.000000000000000000e+00,0.000000000000000000e+00,0.000000000000000000e+00,3.594724654072263548e-02,0.000000000000000000e+00,0.000000000000000000e+00,0.000000000000000000e+00,0.000000000000000000e+00,0.000000000000000000e+00,0.000000000000000000e+00,0.000000000000000000e+00,0.000000000000000000e+00,0.000000000000000000e+00,0.000000000000000000e+00,0.000000000000000000e+00,0.000000000000000000e+00,1.420815921276005755e-01,2.728540426331116375e-01,2.773507234266363031e-01,2.785380457659786813e-01,2.794984543968090929e-01,2.790885343789700768e-01,2.765538841267891623e-01,2.742750491253758138e-01,2.585888681353684659e-01,2.503361644865841895e-01,0.000000000000000000e+00,4.907975651407950335e-02,4.829667875534217336e-02,0.000000000000000000e+00,0.000000000000000000e+00,0.000000000000000000e+00,0.000000000000000000e+00,0.000000000000000000e+00,0.000000000000000000e+00,0.000000000000000000e+00,0.000000000000000000e+00,0.000000000000000000e+00,0.000000000000000000e+00,0.000000000000000000e+00,0.000000000000000000e+00,0.000000000000000000e+00,0.000000000000000000e+00,3.987905135467920137e-02,0.000000000000000000e+00,0.000000000000000000e+00,3.878192638410554033e-02,0.000000000000000000e+00,0.000000000000000000e+00,0.000000000000000000e+00,0.000000000000000000e+00,0.000000000000000000e+00,0.000000000000000000e+00,6.772241529754333307e-03,0.000000000000000000e+00,0.000000000000000000e+00,0.000000000000000000e+00,0.000000000000000000e+00,0.000000000000000000e+00,6.654545523001416905e-03,0.000000000000000000e+00,2.736230390503451709e-02,0.000000000000000000e+00,0.000000000000000000e+00,2.044251698845974199e-02,0.000000000000000000e+00,0.000000000000000000e+00,0.000000000000000000e+00,0.000000000000000000e+00,0.000000000000000000e+00,nan
nan,4.073226518290418846e-02,6.303712093686027196e-02,2.060792272360935720e-02,1.595376035212391422e-02,3.140923376103398751e-02,4.530044203031779321e-02,4.183017195827525708e-02,9.184757771793666814e-02,1.267340433875178141e-01,3.264480025224368587e-02,1.262412287584109005e-01,2.012242718567746821e-02,1.640083855313620720e-01,1.115328731500898063e-01,7.871727166812098053e-02,1.225477954827352972e-01,1.544984473691493054e-01,1.891166412596879398e-01,1.244249265459818204e-01,8.735285897472286343e-02,1.136797006119799891e-01,2.050443619867868550e-02,1.133751827210846413e-01,9.624057682504889855e-02,1.087932574253051565e-01,8.755097562659952537e-02,1.728948762904026215e-01,1.853235960714121333e-01,1.210532643895998461e-01,1.128054165547955484e-01,1.880260933918713184e-01,1.750272302053302309e-01,2.774323508241291480e-02,1.491996221720492399e-01,7.527428467192341655e-02,5.936024493618506648e-02,9.869125041373126572e-03,6.366731269497467871e-02,3.544124370336983881e-02,9.799195080005845826e-02,1.074206664747170692e-01,4.360067933991427364e-02,1.364151929174468592e-01,1.626186732100562415e-01,2.466343724109641145e-01,2.731354039940800948e-01,2.811222227110752314e-01,2.812705970208647099e-01,2.855084471850961036e-01,2.839489771427230469e-01,2.808217797673469018e-01,2.758977636609377670e-01,2.675121878271975451e-01,2.633856647591412137e-01,1.598596894740147711e-01,2.236137676523489159e-01,5.106328501573367123e-02,1.250432920706364692e-01,1.592175299642173691e-01,2.062671872317898003e-01,1.908951587117512783e-01,1.091832644725899970e-01,3.422140034021208671e-02,3.321221114589648082e-02,5.210178566818470663e-02,1.527357877882973836e-01,1.208746478049884249e-01,3.428050482370535029e-02,1.149848140318878303e-01,1.426198769992259308e-01,8.365612044903274203e-02,1.549407926600049057e-01,9.039903323973395854e-02,1.565953196454306084e-01,9.595138645263172339e-02,6.900995244623650549e-02,7.571535966555875685e-02,1.361184668732301761e-01,1.645756500121922650e-02,1.529509082507625739e-01,5.776667282653221575e-02,1.189688733423193701e-01,4.593642024826209702e-02,1.211578940126158549e-01,1.262861504556463121e-01,1.020926069840595030e-01,1.509359101515018176e-01,1.217927234081330468e-01,1.456367314651730582e-01,1.373240621844045717e-01,1.092864840926660586e-01,5.904000329182212264e-03,1.177559098104514201e-01,5.436995096819707135e-02,1.006279465739311207e-01,1.064007880716462545e-01,3.626724094993551833e-02,1.130405623632173458e-02,nan
nan,7.121672216526010735e-02,9.649335584111051745e-02,9.415989015957267061e-02,1.372843491764134394e-01,1.515798528222994657e-01,1.575032536130532013e-01,1.637314941908744603e-01,1.686846638657226172e-01,1.732942901942390312e-01,1.534794104881921639e-01,1.792658612627590908e-01,1.791184109200295027e-01,1.904338521958255648e-01,1.929776534877976069e-01,1.948146302249289530e-01,1.969188296408765915e-01,1.987816018276388208e-01,2.000773853616105158e-01,2.013011579733452461e-01,2.026290028814922151e-01,2.050097429044647201e-01,2.071358459443065902e-01,2.096963440117013966e-01,2.116494322371886838e-01,2.132235524643704694e-01,2.143887284922368908e-01,2.159218075520595859e-01,2.170553054729079112e-01,2.181887712064693730e-01,2.195628144706682772e-01,2.209036127776720648e-01,2.217500173559812660e-01,2.241388876805663066e-01,2.255437801555146837e-01,2.269997117322520852e-01,1.858853717080521384e-01,2.310771034653593958e-01,2.133570759512510295e-01,2.353685064502009927e-01,2.373915267976040300e-01,2.267389431674561306e-01,1.992650864881710671e-01,2.490170887622392693e-01,2.541712849739234947e-01,2.607611438135085669e-01,2.693726297766836364e-01,2.735324567221315561e-01,2.760892228359980716e-01,2.773914320071879103e-01,2.772492026536275134e-01,2.745595034474722640e-01,2.708619750005484828e-01,2.665083762238447673e-01,2.616423255680913607e-01,2.562917176273463715e-01,2.490500021031125388e-01,1.437129335783973449e-01,2.372962253363291030e-01,2.362233773723710906e-01,2.342363879876646904e-01,2.325263671234268914e-01,2.307848078313546325e-01,2.280388468652327638e-01,2.269194094058259725e-01,2.253925848000877807e-01,2.234510595508960307e-01,2.220078492927237690e-01,2.209170555978907380e-01,2.134288925809413318e-01,2.178506490085988512e-01,2.170009022550902222e-01,1.929495834435172585e-01,2.132555344385427265e-01,2.119293750374013074e-01,2.059246969132266791e-01,2.080429755412540882e-01,2.068388580414566857e-01,2.059881575820532440e-01,1.841726278552324736e-01,2.007765936868151357e-01,1.988031532394488321e-01,1.758294589332330404e-01,1.943227098686496901e-01,1.919958725318359483e-01,1.892268707454475285e-01,1.865046926774533986e-01,1.842745635391926373e-01,1.809098656881844014e-01,1.784245674556199091e-01,1.755483939137791050e-01,1.727279437746925272e-01,1.551800201443001570e-01,1.560798074092639431e-01,1.495568350465102947e-01,1.427868654075243049e-01,1.360988062566592383e-01,1.138825683640700137e-01,6.876823337522787460e-02,nan
nan,7.229137773093688435e-02,1.034998644168208803e-01,1.226427980962106479e-01,1.402716692526522480e-01,1.507683380018243757e-01,1.574897560937634777e-01,1.638935551934998514e-01,1.692266330078252001e-01,1.729515085347055892e-01,1.765263397333362572e-01,1.803115468118195452e-01,1.843161849229570937e-01,1.889549182235472635e-01,1.921098074252799992e-01,1.944060740115562957e-01,1.964721568816114872e-01,1.983955094642211314e-01,1.999600549728623999e-01,2.014723438188912308e-01,2.030978427886505067e-01,2.049488626541093872e-01,2.073381062958336019e-01,2.092277423859332519e-01,2.111058904879064557e-01,2.126765340492108303e-01,2.141696151099037326e-01,2.156946568554950205e-01,2.168943659914598365e-01,2.182344418795789387e-01,2.195136288985070905e-01,2.207721586327159313e-01,2.220951343964314706e-01,2.237270256852031958e-01,2.254573891275175324e-01,2.269758726284274719e-01,2.287757570546098407e-01,2.307398875871938815e-01,2.327778553849169652e-01,2.348316705951477013e-01,2.371307612136225873e-01,2.400835265969667454e-01,2.434944175159929336e-01,2.474360162157603349e-01,2.514117565445996849e-01,2.567162664168975428e-01,2.608822021073129438e-01,2.648594056797676233e-01,2.675154989607736455e-01,2.687412488933287880e-01,2.687440435714160136e-01,2.667992659933962063e-01,2.643370560036236161e-01,2.606696918200919200e-01,2.570076870836230376e-01,2.523845778912881532e-01,2.466479558885650847e-01,2.420329343811132294e-01,2.378003372260838466e-01,2.358245269877377315e-01,2.339761210416601844e-01,2.324458456574287901e-01,2.303277330465356987e-01,2.282298211373385011e-01,2.265296615402721814e-01,2.250208231725409624e-01,2.235076076422589375e-01,2.220454363919625029e-01,2.205460391208725335e-01,2.191625897717823235e-01,2.178130320892534555e-01,2.162357283970572641e-01,2.146359903077509901e-01,2.130731908214229531e-01,2.117008050581102863e-01,2.099273012367277036e-01,2.083249306826882585e-01,2.068407819760419153e-01,2.053888902632389768e-01,2.036091974987626896e-01,2.012085504766161770e-01,1.988820538751502054e-01,1.966925698295693414e-01,1.944612992844060306e-01,1.918970183439582256e-01,1.897891859887457511e-01,1.867253815539816897e-01,1.837946963804065748e-01,1.811351630439803351e-01,1.783131308845379848e-01,1.753397873143315300e-01,1.712136942718015531e-01,1.652314082676565876e-01,1.582003474506901985e-01,1.505364944545910244e-01,1.429202391612673373e-01,1.337719030229477801e-01,1.165961558665187942e-01,7.835016453634771616e-02,nan
nan,7.409242466112167524e-02,1.063623343606841382e-01,1.266983589655514275e-01,1.414406053393043872e-01,1.502755994337372780e-01,1.577724009430140628e-01,1.637699519497797240e-01,1.689089588096114591e-01,1.731460874909447889e-01,1.770290625361070902e-01,1.807050537757525221e-01,1.851271342813453624e-01,1.885426146638968237e-01,1.914036752180280077e-01,1.940139729314846184e-01,1.961595007907218913e-01,1.981300782828490648e-01,1.998837474599567399e-01,2.015331282509573441e-01,2.032917438908563579e-01,2.052262000395120856e-01,2.072207025794319812e-01,2.090208120256277502e-01,2.108322352444155778e-01,2.124323812899549802e-01,2.139452913379614185e-01,2.153637732014728190e-01,2.167419386394434100e-01,2.180494957421827418e-01,2.193753293098511525e-01,2.206583272518599093e-01,2.219870133674217427e-01,2.237557993212151153e-01,2.251517939433661797e-01,2.267543381447235662e-01,2.284504996490601958e-01,2.303020996447276703e-01,2.322923359718065961e-01,2.342468494857881112e-01,2.364988682164401168e-01,2.390578757113483443e-01,2.419762012510451865e-01,2.454012442059360088e-01,2.487467183180997465e-01,2.523791771557736263e-01,2.563232030078158585e-01,2.589206539657712414e-01,2.607254978879143814e-01,2.616362767554305524e-01,2.614255954509130397e-01,2.603512272478854528e-01,2.583685886251356201e-01,2.559329788296149655e-01,2.525433618635516408e-01,2.487943296241028057e-01,2.449249497748452464e-01,2.410443556881354810e-01,2.376689360179491672e-01,2.355420716162754391e-01,2.333884016021283148e-01,2.316179761308080065e-01,2.297999877829942639e-01,2.280587564165175163e-01,2.263733783681006195e-01,2.248552053498112380e-01,2.233423320586541694e-01,2.218218262960246490e-01,2.203956860200288193e-01,2.190074187059147526e-01,2.176582926744775881e-01,2.160539534660221861e-01,2.146024384618687164e-01,2.130188703177698650e-01,2.114320926878708318e-01,2.098245133888771152e-01,2.082043745740584928e-01,2.066773421562785873e-01,2.050555013012321792e-01,2.033015235704436763e-01,2.011758625436465830e-01,1.989650726293539229e-01,1.968301081393418750e-01,1.945185875913446050e-01,1.919894277750215927e-01,1.895960108708742431e-01,1.868607413393112426e-01,1.839730774501770472e-01,1.810779537399858086e-01,1.779263318179333253e-01,1.744859861776927312e-01,1.702075930020398586e-01,1.650058711860793170e-01,1.585016101969189684e-01,1.513439029685057780e-01,1.431272007069585572e-01,1.322105454273031777e-01,1.137064674517920954e-01,8.007171765098840266e-02,nan
nan,7.780405784783833711e-02,1.099533715577461768e-01,1.285968770931984473e-01,1.411638145413028067e-01,1.505084651052569500e-01,1.577491595602909524e-01,1.635853123141824961e-01,1.687145925516144174e-01,1.731352367244766433e-01,1.771551977720937088e-01,1.809930714547862973e-01,1.846844817479599277e-01,1.880703054508029437e-01,1.910345438126226369e-01,1.935610600089865685e-01,1.958286327575686769e-01,1.978723278941694197e-01,1.996900713439705710e-01,2.014582195577138690e-01,2.032886282552625046e-01,2.051518750456889639e-01,2.070286200503650975e-01,2.088296516291328064e-01,2.105093856930849161e-01,2.121315811364093695e-01,2.136565529085227566e-01,2.150899376993905265e-01,2.164511991707184779e-01,2.178188402700182713e-01,2.191525339546681328e-01,2.204569885066194335e-01,2.218963904677683230e-01,2.233752056880292658e-01,2.248964731920216065e-01,2.264425448186760392e-01,2.280547731727811667e-01,2.297797738363631104e-01,2.316452331306299572e-01,2.336013289145969507e-01,2.355726152250917083e-01,2.379411227844179799e-01,2.404588279701594111e-01,2.431088048865382989e-01,2.460327225934950679e-01,2.488415714184391281e-01,2.515916100992570126e-01,2.536039389696399526e-01,2.550956674157238702e-01,2.558026672933155776e-01,2.557288688288644196e-01,2.547739477769651595e-01,2.535772764903472254e-01,2.512241230454512753e-01,2.489356642789044560e-01,2.457670790760247137e-01,2.429071886166748462e-01,2.395858934927041217e-01,2.370358003277996950e-01,2.348252885286212233e-01,2.327676884697645054e-01,2.310303366167269778e-01,2.293627492902753362e-01,2.276654202600126853e-01,2.260155440807515015e-01,2.245055666145986395e-01,2.230251907913063103e-01,2.215614453085509306e-01,2.201699842737488977e-01,2.187527963323212532e-01,2.173279140314106073e-01,2.158519688953363658e-01,2.144186539473975084e-01,2.128890203671342796e-01,2.113157708871659934e-01,2.097005665129565710e-01,2.081073008778134281e-01,2.064683878035782072e-01,2.048138008322154258e-01,2.029904246564065429e-01,2.009587629481066062e-01,1.988863309227516252e-01,1.967379941310827829e-01,1.944053225424633990e-01,1.919912935306728741e-01,1.894787841350366042e-01,1.867973652774579385e-01,1.839781847621578537e-01,1.809852334468637913e-01,1.777843841052439977e-01,1.741008831628862441e-01,1.697923271451360072e-01,1.647455210205915621e-01,1.586456989807668028e-01,1.513861571795235006e-01,1.428359660148900423e-01,1.312785992787722511e-01,1.152182672153583692e-01,8.270360186311631612e-02,nan
nan,7.768500225117035141e-02,1.111808830673059745e-01,1.290914067732831794e-01,1.415376474886936575e-01,1.506248047196977191e-01,1.574647007509563379e-01,1.635879878864449910e-01,1.686142077966977237e-01,1.731340868261240507e-01,1.772158421605680156e-01,1.809701321925739070e-01,1.845603366549184998e-01,1.877298745203585806e-01,1.906413935259290149e-01,1.931881456923318363e-01,1.955026825403732571e-01,1.975812360027209835e-01,1.995056825921260879e-01,2.013647860029798287e-01,2.031919147166743600e-01,2.050060293349943163e-01,2.067846987394205971e-01,2.085415685765409366e-01,2.102083208029695005e-01,2.117905879102196520e-01,2.133208260904806974e-01,2.147489816775347560e-01,2.161299772279118292e-01,2.174884416899591777e-01,2.188135260691418116e-01,2.201885565541016054e-01,2.215546625179540541e-01,2.229891172175582359e-01,2.244779234652687916e-01,2.259534337678247018e-01,2.275174795164962294e-01,2.291312573747949777e-01,2.308040369379618650e-01,2.326975373452567220e-01,2.346351815083511649e-01,2.365814846942951299e-01,2.388217711475044414e-01,2.411392490866566818e-01,2.434417441510352276e-01,2.456073527064459028e-01,2.476168567149989175e-01,2.494253141654180495e-01,2.504754321150334251e-01,2.509219531010720705e-01,2.511380662564808852e-01,2.502852121934419638e-01,2.491024963702457018e-01,2.473316466106662004e-01,2.453559095042742999e-01,2.430773854874106465e-01,2.405689064541697564e-01,2.381033326583839871e-01,2.359061751473141011e-01,2.338366688809481175e-01,2.320278995669788069e-01,2.303618900518700219e-01,2.286957212437504827e-01,2.271233898783354688e-01,2.255659463821528266e-01,2.240841684679133194e-01,2.226332566453641248e-01,2.212032638112317318e-01,2.198083180856695296e-01,2.184234280892109470e-01,2.169916083780797922e-01,2.155580535028910061e-01,2.141041048990322548e-01,2.125847993336859032e-01,2.110439451496951557e-01,2.094875047134716339e-01,2.078878428036422532e-01,2.062591153334800143e-01,2.045395104818824583e-01,2.027176309258659770e-01,2.007379619608736510e-01,1.987197965788566889e-01,1.965537395394482967e-01,1.942974046809474720e-01,1.918982308545392756e-01,1.893782238063174694e-01,1.866823623847950198e-01,1.838800498308928444e-01,1.808304253264173822e-01,1.774956975164529993e-01,1.737380676436960369e-01,1.694750110237369378e-01,1.644064181249790257e-01,1.585103480276852661e-01,1.512997994229247634e-01,1.423040277263418474e-01,1.311349949206926380e-01,1.143845397671207215e-01,7.430183244049395896e-02,nan
nan,7.907169355014975753e-02,1.075122930535537119e-01,1.292854277634006011e-01,1.414828468321669974e-01,1.504354093186351382e-01,1.576239509358863811e-01,1.632133251914946181e-01,1.685260303071487165e-01,1.730462406138623122e-01,1.770022702758693167e-01,1.807565648445652318e-01,1.842532119984239269e-01,1.873752469047257896e-01,1.902469024251466634e-01,1.928203195681767457e-01,1.950974027090768836e-01,1.972537274502982885e-01,1.992414739366811238e-01,2.011345472889313479e-01,2.029651517522931825e-01,2.047661040525686205e-01,2.065080386172661320e-01,2.082339568367087834e-01,2.098427587697183905e-01,2.114251602847669609e-01,2.129352313485834980e-01,2.143674079257255893e-01,2.157504808161662124e-01,2.171071528102477832e-01,2.184313596519009415e-01,2.197941363304883322e-01,2.211460155158072594e-01,2.225528525250863865e-01,2.239490276309580585e-01,2.254045691714960664e-01,2.268906109349690947e-01,2.284403343343265336e-01,2.300424667062486161e-01,2.316808434829309427e-01,2.334448764859965997e-01,2.352184913922565346e-01,2.371064604006707932e-01,2.390028238312479625e-01,2.408136547180109721e-01,2.425923938472899222e-01,2.442871913003697992e-01,2.455656206103630224e-01,2.466072692906327024e-01,2.470324085980220019e-01,2.469586497139709680e-01,2.463494170606440326e-01,2.453900560670544961e-01,2.441749060979307440e-01,2.424029784561218259e-01,2.406283288516252172e-01,2.386172891577490185e-01,2.366162967289356933e-01,2.347086739941666167e-01,2.328312037903981502e-01,2.311219771957893909e-01,2.295731361447471419e-01,2.280031251132785819e-01,2.264962917642175944e-01,2.250043151395766106e-01,2.235717446702876476e-01,2.221593101589700858e-01,2.207783494769207100e-01,2.193913988832702222e-01,2.180267646387299418e-01,2.166185601742138256e-01,2.152061605641029385e-01,2.137631504973755980e-01,2.122673909285799354e-01,2.107550419973528155e-01,2.092031601782681216e-01,2.076150251058246077e-01,2.059590361008584170e-01,2.042309529165511062e-01,2.024162209995888917e-01,2.004986439780588880e-01,1.984833500718866384e-01,1.963572317845340143e-01,1.940906869261752599e-01,1.917170958433299655e-01,1.892115318392165457e-01,1.865441311075586861e-01,1.836339456179182650e-01,1.805803587116816267e-01,1.771454997407775345e-01,1.733998283555650555e-01,1.691131717662892331e-01,1.641721269784353621e-01,1.582156705664342633e-01,1.510577386339252981e-01,1.425011210541463902e-01,1.307894865685507446e-01,1.123528760408017274e-01,8.131752247186727067e-02,nan
nan,7.710525871302296996e-02,1.087218597752525606e-01,1.288109639874592260e-01,1.409117080238155573e-01,1.497625636268246352e-01,1.573453102210888022e-01,1.632365368122560279e-01,1.682366417086451627e-01,1.727898105816844665e-01,1.768989792397138716e-01,1.805492777547819117e-01,1.839206642228185529e-01,1.870396837565009573e-01,1.898699812011096499e-01,1.924109025021838171e-01,1.947443391389244161e-01,1.968925227753988705e-01,1.989129185556612611e-01,2.008064940786010166e-01,2.026700659431742713e-01,2.044609640301164877e-01,2.061925755513902281e-01,2.078533032462108465e-01,2.094626574145353470e-01,2.110194588974899643e-01,2.125084933259636655e-01,2.139418178014312333e-01,2.153190297519921026e-01,2.166725489924969383e-01,2.180044636282297554e-01,2.193310146362696389e-01,2.206530397100990859e-01,2.220096953885717928e-01,2.233703546544039131e-01,2.247571740584268229e-01,2.261762742290666928e-01,2.276433410617152153e-01,2.291127142497151881e-01,2.306745944029981732e-01,2.322072780750970289e-01,2.338120425082129694e-01,2.354914587161647532e-01,2.370131875729896698e-01,2.386449883192122146e-01,2.401773135969907380e-01,2.413756529326679390e-01,2.424652986549166167e-01,2.430127575909858118e-01,2.433048620352831759e-01,2.434134379084259836e-01,2.431173907898417641e-01,2.422194618553383250e-01,2.410376056724545801e-01,2.397997768733840518e-01,2.383802801291923512e-01,2.366209702700239337e-01,2.350207170829932968e-01,2.333404997964662608e-01,2.316936136430273740e-01,2.301441281874971878e-01,2.286705134126973127e-01,2.272315511379186248e-01,2.257705612509080528e-01,2.243852374478484957e-01,2.229948595570582781e-01,2.216343923255220116e-01,2.202702994026413674e-01,2.189344294582407646e-01,2.175594364834062544e-01,2.161913831292726906e-01,2.147906584098237537e-01,2.133651147264158388e-01,2.118968285722866995e-01,2.103847779199223555e-01,2.088558784440404104e-01,2.072679596174830663e-01,2.056247218701601209e-01,2.039007039687743827e-01,2.020961283346715820e-01,2.001841262758559670e-01,1.981959531321769996e-01,1.960784773318894891e-01,1.938391496317760643e-01,1.914630397696038822e-01,1.889568618201849515e-01,1.862809795342580399e-01,1.833809634247627329e-01,1.802207380365711265e-01,1.768818105546988706e-01,1.730731279826356328e-01,1.688055587346012076e-01,1.634830814851551406e-01,1.579434816170846856e-01,1.509700787926721022e-01,1.420717312916355557e-01,1.303604018171099499e-01,1.122660709325802586e-01,8.068418422958439917e-02,nan
nan,7.657646161231276838e-02,1.075478065922256948e-01,1.287059413729973456e-01,1.411162083880322660e-01,1.502327357876809266e-01,1.572356127717195462e-01,1.630136724212764010e-01,1.680550247671739328e-01,1.724787426776250299e-01,1.765582792955507907e-01,1.801619553440996779e-01,1.835768871968732618e-01,1.866579356398047063e-01,1.894265798266683287e-01,1.919992518238899104e-01,1.943290387343709347e-01,1.965062880692445002e-01,1.985422420953530387e-01,2.004653259475655258e-01,2.023165501368981989e-01,2.040838444054526024e-01,2.058003986572895239e-01,2.074531404712649796e-01,2.090367190034226608e-01,2.105746544104649398e-01,2.120385994346664082e-01,2.134538648188914478e-01,2.148333750996760938e-01,2.161738948195196519e-01,2.174781910326775425e-01,2.187946307062505480e-01,2.201047384843907162e-01,2.214065211402724276e-01,2.227359830683570407e-01,2.240577159394970819e-01,2.254070141321166676e-01,2.267621031462065118e-01,2.281669163097253816e-01,2.295343828613036485e-01,2.310090385357114195e-01,2.323689144848963828e-01,2.338254717828709417e-01,2.351906148788493467e-01,2.365524931490529947e-01,2.377308755345471092e-01,2.387029842657515943e-01,2.396486295893731633e-01,2.401742551609464538e-01,2.404538478787945355e-01,2.405103297852143329e-01,2.401172589270873514e-01,2.394304274239646979e-01,2.386328377628169073e-01,2.375641463106356321e-01,2.362805398382680222e-01,2.348432753527609773e-01,2.334466011066693991e-01,2.319250833367001996e-01,2.305375681392165810e-01,2.291223863134804195e-01,2.277498948721640992e-01,2.263633599765414450e-01,2.250296119436772657e-01,2.236761875224338725e-01,2.223608371698350683e-01,2.210369702401647762e-01,2.197110360293628162e-01,2.183880203522129415e-01,2.170614706403938277e-01,2.156992260634187086e-01,2.143201960852295362e-01,2.129055656168656607e-01,2.114657225699601295e-01,2.099801618893996358e-01,2.084381507518273668e-01,2.068711399984795307e-01,2.052314402108378344e-01,2.035156887436584405e-01,2.017383887218930638e-01,1.998520842106110418e-01,1.978339384474665785e-01,1.957387258730696189e-01,1.935205256867213730e-01,1.911637390602673181e-01,1.886599450617996165e-01,1.859681146388935391e-01,1.830767240372240812e-01,1.799734287631418184e-01,1.765116947722191187e-01,1.726261376309920770e-01,1.683243830180269907e-01,1.634351626340995733e-01,1.575933096808181388e-01,1.507062735495137418e-01,1.418079063807239359e-01,1.299314643227023891e-01,1.124283291882608449e-01,7.610369216495997680e-02,nan
nan,7.819502991351971743e-02,1.114237233276316880e-01,1.289394737904992483e-01,1.407134585460724507e-01,1.501554950931064669e-01,1.572012183257498197e-01,1.626992402154843476e-01,1.678116337057616869e-01,1.721096704358311968e-01,1.761744167809423944e-01,1.798844779762598933e-01,1.831548219171554581e-01,1.861911907873674554e-01,1.889814288092284411e-01,1.915063412900113726e-01,1.938789007779066487e-01,1.960821337428518829e-01,1.981059125560271916e-01,2.000394625976873453e-01,2.018769364452711879e-01,2.036575403185358901e-01,2.053506180529029168e-01,2.069766421320777816e-01,2.085500251649151371e-01,2.100516621328716860e-01,2.115194640362886291e-01,2.129215808522630093e-01,2.142826996180900445e-01,2.156134709005871619e-01,2.169200482242636119e-01,2.182017591990563499e-01,2.194788276378240033e-01,2.207563193074261465e-01,2.220156119894217406e-01,2.232786028590178495e-01,2.245716177971016636e-01,2.258394053987091699e-01,2.271218888029199467e-01,2.284029484199793791e-01,2.297056235318979955e-01,2.309910828619040069e-01,2.322662468833793514e-01,2.335098958012343240e-01,2.345483508174412424e-01,2.355712727126751949e-01,2.364053072278909651e-01,2.370973710226942366e-01,2.375786962068708041e-01,2.378179212932131636e-01,2.377870846428615237e-01,2.375776206175332916e-01,2.369881068758569187e-01,2.362542169660434566e-01,2.354014638877757748e-01,2.343349341441077205e-01,2.331422600124350430e-01,2.319063059754320200e-01,2.306224429711636881e-01,2.293577816727878083e-01,2.280568884449459821e-01,2.267691144940517101e-01,2.254759131147587858e-01,2.242058300164905815e-01,2.229172328939566239e-01,2.216563089866314118e-01,2.203731151079889039e-01,2.191030511954224491e-01,2.178077410326194896e-01,2.164995486630818256e-01,2.151674599595426729e-01,2.138005936127416740e-01,2.124076577771450147e-01,2.109743427307546881e-01,2.095095033758603009e-01,2.080027302113089116e-01,2.064273799634226969e-01,2.047746888644517149e-01,2.030901187201880898e-01,2.013015112089177605e-01,1.994190134172108830e-01,1.974492728956656618e-01,1.953649790447992418e-01,1.931310086081572397e-01,1.907640022366984545e-01,1.882672102134314573e-01,1.856020325451323283e-01,1.827395672169938312e-01,1.795458836213887355e-01,1.760940566311498257e-01,1.722905106625121641e-01,1.679912666731836479e-01,1.627930203973488033e-01,1.571431388036532151e-01,1.503063900722865220e-01,1.416750666259541103e-01,1.307659734068127300e-01,1.131005732338487557e-01,8.216968550741260424e-02,nan
nan,7.993524056461162597e-02,1.099522452755251484e-01,1.291502871641087291e-01,1.407070539797803943e-01,1.498903969057672481e-01,1.568294203955551691e-01,1.624696329309406884e-01,1.675318324096758127e-01,1.717521213005092917e-01,1.757374469974377074e-01,1.794678443849337668e-01,1.827515787177077522e-01,1.857053941559201338e-01,1.884544050314047592e-01,1.910344621857971437e-01,1.933575150249284280e-01,1.955726372216358422e-01,1.976204527094964636e-01,1.995469975432706267e-01,2.013968778042333208e-01,2.031556554599188158e-01,2.048501466472263388e-01,2.064668006848300319e-01,2.080099058723350602e-01,2.095065590897376984e-01,2.109497272634617004e-01,2.123523278890887822e-01,2.136980366136754239e-01,2.150086712735144179e-01,2.162900464636908215e-01,2.175571437051878609e-01,2.188031451945584294e-01,2.200273464825902858e-01,2.212527848458021307e-01,2.224633889442730883e-01,2.236740653483230146e-01,2.248824478230400103e-01,2.260845444446423769e-01,2.272647864598103529e-01,2.284649656214343405e-01,2.296017798176598901e-01,2.307069068934556877e-01,2.317659107921070938e-01,2.326929671737156535e-01,2.336091479434893037e-01,2.343071204749327396e-01,2.348890565836402322e-01,2.352338588028003441e-01,2.353626206261320852e-01,2.354202373364907008e-01,2.352158074499961504e-01,2.347308617220732474e-01,2.341451456356700711e-01,2.333905535825939459e-01,2.324911706370674513e-01,2.314652605601036084e-01,2.304110767315999397e-01,2.292687243704872868e-01,2.280914460944375999e-01,2.269288464710818576e-01,2.257137904637679382e-01,2.245370360825374445e-01,2.233272923198673932e-01,2.221305555290145062e-01,2.208954846230251068e-01,2.196641685277120337e-01,2.184200659635920361e-01,2.171588551567735226e-01,2.158784933093211844e-01,2.145723775588486426e-01,2.132322689586292064e-01,2.118473230336684054e-01,2.104471548925679891e-01,2.089901067107360899e-01,2.074914744936951216e-01,2.059113060295922337e-01,2.042957909043875975e-01,2.026145143451156816e-01,2.008301928359171318e-01,1.989586088994015900e-01,1.969942504912788606e-01,1.949062513081523951e-01,1.927083084504956911e-01,1.903668240479191032e-01,1.878690987127187018e-01,1.851515038806977875e-01,1.823225744219714173e-01,1.791785721615384575e-01,1.755997262797738545e-01,1.717944780825681195e-01,1.674846182108452042e-01,1.625337328215931132e-01,1.567702576716333562e-01,1.498643912957033919e-01,1.416083572168899962e-01,1.294075182870493557e-01,1.137369029680968258e-01,7.931888312363283289e-02,nan
nan,7.751767674338870540e-02,1.132577493052431133e-01,1.293130335368975481e-01,1.404410684452989388e-01,1.495263524514207631e-01,1.564759758074557860e-01,1.620804751439563485e-01,1.670439256595129540e-01,1.713683941760839047e-01,1.753747765905804279e-01,1.788963628850550602e-01,1.822439252412098032e-01,1.851779048277058248e-01,1.879298622019452414e-01,1.904703394111508796e-01,1.928447794123755721e-01,1.950329365277471139e-01,1.970843574341806237e-01,1.990207557244543513e-01,2.008497334032893489e-01,2.026167100551103106e-01,2.042838950832701894e-01,2.059023477983617512e-01,2.074389682461259821e-01,2.089153835524632796e-01,2.103487809744671588e-01,2.117283365963260888e-01,2.130655647190179691e-01,2.143581872958916779e-01,2.156109530651470485e-01,2.168482624069273390e-01,2.180701097760713303e-01,2.192351234440526042e-01,2.204417981184729480e-01,2.215989303809106636e-01,2.227575228031901111e-01,2.238864337156404871e-01,2.250218819375474910e-01,2.261049200230266232e-01,2.271675244579160757e-01,2.282318173108735804e-01,2.292255142789057787e-01,2.301382944651826912e-01,2.309678764041944721e-01,2.317522097572475848e-01,2.323160937300622897e-01,2.328179639303416537e-01,2.330903444571250371e-01,2.333080386178253973e-01,2.332787052888566359e-01,2.330382391819009746e-01,2.326982995312836255e-01,2.322181587207969022e-01,2.315495739640833217e-01,2.307404874580143150e-01,2.298974849247476249e-01,2.289307991734702286e-01,2.279499988622769313e-01,2.268764266590307666e-01,2.257970025778431866e-01,2.246753679479143173e-01,2.235637641872000314e-01,2.224095154954045805e-01,2.212272467132475606e-01,2.200866455617227491e-01,2.189020604702604511e-01,2.176921344445343631e-01,2.164637240772937787e-01,2.151884213573695970e-01,2.139220800947257695e-01,2.125988195963965932e-01,2.112441928394349078e-01,2.098527951545682280e-01,2.084147537767019887e-01,2.069200504851471667e-01,2.053702785289893140e-01,2.037560769820421780e-01,2.020775872603353118e-01,2.003168024373913059e-01,1.984358241300256953e-01,1.964872389011932952e-01,1.944148717110607549e-01,1.922038341285495500e-01,1.898913220370934685e-01,1.874019673885664039e-01,1.847042952580781883e-01,1.818239540411536181e-01,1.786910635589925855e-01,1.751496368050009522e-01,1.713038865072576133e-01,1.669659172510760126e-01,1.621250736968962713e-01,1.563339566440405115e-01,1.494500024284115547e-01,1.411905219949813051e-01,1.303678425753299619e-01,1.118733577466056173e-01,7.744925166932828398e-02,nan
nan,8.378662138058545761e-02,1.133474484410911393e-01,1.297551646513755708e-01,1.407137598174803828e-01,1.490327403987377897e-01,1.556966396968938460e-01,1.616505124032120433e-01,1.665837306671504869e-01,1.709468097302829226e-01,1.748338450683646350e-01,1.784414119949858657e-01,1.816749551307886845e-01,1.846246188875843297e-01,1.873896468402612148e-01,1.899121375880455653e-01,1.922478300239340021e-01,1.944541143445447928e-01,1.965011014571519943e-01,1.984374729145377825e-01,2.002718778472094008e-01,2.020168554577604358e-01,2.036718303139033737e-01,2.052706272884752270e-01,2.067950153397991042e-01,2.082687168467653727e-01,2.096901375398601830e-01,2.110430813284550622e-01,2.123656230894868102e-01,2.136447632275989827e-01,2.148841974156616430e-01,2.160874992330041877e-01,2.172800435045624257e-01,2.184354972788024873e-01,2.195728871824351724e-01,2.206985670381501063e-01,2.217967137063554250e-01,2.228622384821539182e-01,2.239170802733223276e-01,2.249464102292443313e-01,2.258889107907179616e-01,2.268831425577511052e-01,2.277449060868953212e-01,2.285656169586607889e-01,2.293330268330869559e-01,2.299489212908182312e-01,2.304961533900097559e-01,2.309058870480544534e-01,2.311836626014471818e-01,2.313292267553566095e-01,2.313248759120111187e-01,2.311282401118549268e-01,2.307979699556982345e-01,2.303930363352674204e-01,2.298047369949283714e-01,2.291237285198062246e-01,2.283620710395484754e-01,2.275215601024087042e-01,2.266005333557824797e-01,2.256381297152571241e-01,2.246419185701885590e-01,2.235856195010266778e-01,2.225396425242299747e-01,2.214491970897928264e-01,2.203670592453649268e-01,2.192400127076826466e-01,2.180866820621276958e-01,2.169199942113729795e-01,2.157111494617221514e-01,2.144821185769291705e-01,2.132212812648087708e-01,2.119291928350126863e-01,2.105864010874287651e-01,2.092092595618048612e-01,2.077935147663513005e-01,2.063098563794944496e-01,2.047750740387186408e-01,2.031636544386236920e-01,2.014869580150832062e-01,1.997304021522103568e-01,1.978854820392942082e-01,1.959046054011552296e-01,1.938527239406422353e-01,1.916493994519647137e-01,1.893440771225516905e-01,1.868728997544741310e-01,1.842199812947299398e-01,1.813095753032220869e-01,1.780646861309386486e-01,1.746284538031651346e-01,1.707805397090791932e-01,1.664209284778838394e-01,1.614260615911047303e-01,1.557242930539061987e-01,1.489103592308976542e-01,1.407180265996420265e-01,1.297217537231282192e-01,1.119427375232749100e-01,7.955112866386793158e-02,nan
nan,8.185358234475725858e-02,1.125003219507786645e-01,1.294234804357780044e-01,1.399976626003746616e-01,1.484216015780205344e-01,1.551732331421954159e-01,1.610683706033500528e-01,1.660184950728725572e-01,1.703652092981566279e-01,1.743409257440082794e-01,1.778200879628850928e-01,1.810853615782900550e-01,1.840165038676416231e-01,1.867879521577403557e-01,1.893027097605103348e-01,1.915971499276437617e-01,1.938117673236528782e-01,1.958455700014117840e-01,1.977856898167728028e-01,1.996224478829462523e-01,2.013595574567386692e-01,2.030227845140126219e-01,2.045943646285172668e-01,2.061201988006949037e-01,2.075691918387332358e-01,2.089752695766151913e-01,2.103261853809998416e-01,2.116308861857976731e-01,2.128903927394576179e-01,2.141103148744422646e-01,2.153016693417949545e-01,2.164364451845895987e-01,2.175788144301092353e-01,2.186719496828972709e-01,2.197494274619907761e-01,2.207970534474785751e-01,2.217975014204255357e-01,2.228147327100519215e-01,2.237491473854926749e-01,2.246586729384928427e-01,2.255155199957479817e-01,2.263273789639612676e-01,2.270942040790751570e-01,2.277441320599349339e-01,2.283177802756744534e-01,2.287655322009425340e-01,2.291222189905811057e-01,2.293621190240112129e-01,2.294806413598418637e-01,2.294780092288409290e-01,2.293594921918059026e-01,2.290499910968383790e-01,2.286594261156686680e-01,2.281748633978390173e-01,2.275565458482011749e-01,2.268702770493443710e-01,2.261038228713275477e-01,2.252817128268574665e-01,2.243837714081177714e-01,2.234793564381991893e-01,2.225049468783646400e-01,2.215104370089436836e-01,2.204850952714390855e-01,2.194217937436537813e-01,2.183334988230020146e-01,2.172307802772295848e-01,2.160852307286369456e-01,2.149209938310862045e-01,2.137028846081348576e-01,2.124759470603528044e-01,2.111992907943047726e-01,2.098877876563930989e-01,2.085201806709206240e-01,2.071110045256951415e-01,2.056454400239199065e-01,2.041178876585099111e-01,2.025320370635435296e-01,2.008400062072692172e-01,1.990926389539371677e-01,1.972475020103235666e-01,1.953109626302066693e-01,1.932428686981318977e-01,1.910729839329510793e-01,1.887562987830280758e-01,1.862559681867049788e-01,1.835789084327343890e-01,1.806645980045898936e-01,1.774648936687536760e-01,1.740208009999670014e-01,1.701195352675630157e-01,1.658206113693746209e-01,1.608045267235341247e-01,1.551211463482503328e-01,1.480922046099302780e-01,1.398446039465436885e-01,1.284199302233009488e-01,1.098812312572145233e-01,7.641450322390236360e-02,nan
nan,8.058289988774405832e-02,1.139870411564179176e-01,1.286981985052521871e-01,1.393781345921621395e-01,1.478953823248783939e-01,1.545937646623279371e-01,1.604478966329846712e-01,1.654276726378180185e-01,1.697915390834805194e-01,1.736191593262762511e-01,1.772313434531779808e-01,1.804564145957707200e-01,1.833649930317355903e-01,1.860935564874743875e-01,1.886189471608268609e-01,1.909196228514851712e-01,1.931151564576261415e-01,1.951552885593201281e-01,1.971044118629369235e-01,1.989286284262682947e-01,2.006664669790642896e-01,2.022993429376108154e-01,2.038823656928728523e-01,2.053943941891605562e-01,2.068428129403395987e-01,2.082247265387693891e-01,2.095568655794822210e-01,2.108425560718398262e-01,2.120925880851149969e-01,2.132767114270705811e-01,2.144507209684745064e-01,2.155750567261695005e-01,2.166593682651264674e-01,2.177247423278700911e-01,2.187669302074796707e-01,2.197663717294759123e-01,2.207292652220786688e-01,2.216690945488846154e-01,2.225612038126656700e-01,2.234146380950347843e-01,2.242075198259681768e-01,2.249530853912330708e-01,2.256232292950552387e-01,2.262368074310180388e-01,2.267354981087857380e-01,2.271308002862956199e-01,2.274691111972949042e-01,2.276859827482884957e-01,2.277722181142262659e-01,2.277732348538601403e-01,2.276394173084809736e-01,2.273653862125181724e-01,2.270566071629355198e-01,2.265894015554746621e-01,2.260194180888211724e-01,2.254214673400734836e-01,2.246954744324753395e-01,2.239739479477830808e-01,2.231532648130171159e-01,2.222886003591806603e-01,2.213786415370727623e-01,2.204554171416797381e-01,2.194713724199042204e-01,2.184421738044093064e-01,2.174158894582648716e-01,2.163379002647203286e-01,2.152258874745049122e-01,2.140696278227435523e-01,2.129019146548244978e-01,2.116833407980228954e-01,2.104187292992396596e-01,2.091279666671047865e-01,2.077807271595495942e-01,2.063914429624455760e-01,2.049251195800725345e-01,2.034154471818529486e-01,2.018288431730370369e-01,2.001680285772501899e-01,1.984117475307796696e-01,1.965860095681555286e-01,1.946242187527839063e-01,1.925874250669133148e-01,1.903698975646298530e-01,1.880832821758192108e-01,1.856435513416443972e-01,1.829703278677278222e-01,1.800144362764661277e-01,1.768868382877494538e-01,1.734082742607821748e-01,1.695570792814865002e-01,1.651975372118291152e-01,1.603430990021931790e-01,1.547480864384348509e-01,1.476300083549556275e-01,1.391818582058283182e-01,1.278547364599696423e-01,1.101021663634816350e-01,7.712383179423618063e-02,nan
nan,8.354792239125223563e-02,1.115992850315188079e-01,1.280354224688192710e-01,1.388751701734514676e-01,1.473454451021287415e-01,1.539522936295036060e-01,1.598275263805960522e-01,1.647101204285605913e-01,1.691130280256545326e-01,1.729646125780379129e-01,1.765371011452794847e-01,1.797727682852877096e-01,1.826529845856157130e-01,1.853785304252271171e-01,1.878645215554829162e-01,1.901907084822573868e-01,1.923706815923885705e-01,1.944328755316669377e-01,1.963664571421834815e-01,1.981826806706805666e-01,1.999093140463820972e-01,2.015627781792769802e-01,2.031073353647818436e-01,2.046032383220680040e-01,2.060585409520730438e-01,2.074236824569626603e-01,2.087445062874501989e-01,2.100166954547065812e-01,2.112350045573265500e-01,2.124182082262726368e-01,2.135598983739274148e-01,2.146614005564333738e-01,2.157207523239751956e-01,2.167520568644761281e-01,2.177497334098379977e-01,2.187124738177928240e-01,2.196301942271936813e-01,2.205166960294107081e-01,2.213637209056559529e-01,2.221526836907385949e-01,2.228853636699406615e-01,2.235898302884140043e-01,2.241948046428012542e-01,2.247510729165806964e-01,2.252190016078730594e-01,2.256034840822623844e-01,2.258791518566367063e-01,2.260529059319812129e-01,2.261661604870508491e-01,2.261290307246213993e-01,2.260240405926992602e-01,2.258023497807596647e-01,2.254891269317817470e-01,2.250741104070343446e-01,2.246022222727981910e-01,2.240004092906832667e-01,2.233742677544051092e-01,2.226991255924452018e-01,2.219217237345231797e-01,2.211179889171841217e-01,2.202414362137491699e-01,2.193579744051621927e-01,2.184239782451706802e-01,2.174571732038452776e-01,2.164462584463524020e-01,2.153998947860771007e-01,2.143162054528235383e-01,2.131926869913806644e-01,2.120465996964656930e-01,2.108461467992023552e-01,2.096088495733045010e-01,2.083252528289722405e-01,2.069969643146506999e-01,2.056145289353516203e-01,2.041708209006556640e-01,2.026560858059960335e-01,2.010768391250481180e-01,1.994249275372093344e-01,1.976802006886533847e-01,1.958538900396121218e-01,1.939098482179099081e-01,1.918808301035218045e-01,1.896966138384230671e-01,1.873769471996825919e-01,1.849028170977857488e-01,1.822005961867527168e-01,1.793357360715138182e-01,1.762077911873677905e-01,1.727166201746224705e-01,1.688812215422139384e-01,1.645218628121241089e-01,1.596554144510593243e-01,1.540764373662620590e-01,1.470619965369829585e-01,1.385991711177542995e-01,1.268916346089552782e-01,1.092749870325693540e-01,7.720893285372065762e-02,nan
nan,7.593525268366212166e-02,1.102438706795624002e-01,1.266028887154281857e-01,1.382967527453467238e-01,1.467138890049193567e-01,1.534611238008557754e-01,1.592419019256385293e-01,1.640671177251982749e-01,1.684258636027622380e-01,1.723056237137698121e-01,1.757727699506830832e-01,1.790018891616752539e-01,1.819222224668706756e-01,1.846221825996511301e-01,1.871016791204111185e-01,1.894297795001528284e-01,1.915963471578737976e-01,1.936332841067853194e-01,1.955699941170307432e-01,1.973848185863970317e-01,1.991014888729151777e-01,2.007372393898418372e-01,2.022887766891357519e-01,2.037874203965622522e-01,2.052083469403040705e-01,2.065724000941390193e-01,2.078817288710665678e-01,2.091367797419586561e-01,2.103340735147621321e-01,2.115040496942450499e-01,2.126261972897448560e-01,2.136914744973177349e-01,2.147302113920137312e-01,2.157377833469228123e-01,2.166838619779865582e-01,2.176231544298319609e-01,2.185097857517470099e-01,2.193466003284327559e-01,2.201498556968103371e-01,2.209029104399297672e-01,2.215852792957506978e-01,2.222174589562492253e-01,2.227991276587770186e-01,2.233127068398413351e-01,2.237225578190669140e-01,2.240832967246415286e-01,2.243544936703712744e-01,2.245116180132617489e-01,2.245887997267722036e-01,2.245716989069235781e-01,2.244814395303948440e-01,2.242753774631472130e-01,2.239928381559126991e-01,2.236189117206767996e-01,2.231562679095519253e-01,2.226213443191252528e-01,2.220448419751189784e-01,2.213870155387684946e-01,2.206760363413869108e-01,2.198996675769891440e-01,2.190975979875570689e-01,2.182440201903639576e-01,2.173507621462495987e-01,2.164190842086760880e-01,2.154243390281037340e-01,2.144174737898317529e-01,2.133537104787218142e-01,2.122718787797179263e-01,2.111392690652210136e-01,2.099633383547817866e-01,2.087473159717832816e-01,2.074752605248384174e-01,2.061624100351487632e-01,2.047789632277764449e-01,2.033431869120802815e-01,2.018595167864475903e-01,2.002735822657519815e-01,1.986175325492525179e-01,1.969011325812623781e-01,1.950756411692019798e-01,1.931674012564283949e-01,1.911176801535183212e-01,1.889418619266598487e-01,1.866233951615377251e-01,1.841888607957807289e-01,1.815116125798634517e-01,1.785957102855401102e-01,1.754673596045751571e-01,1.720186328946213816e-01,1.681144059400671020e-01,1.638396535223088646e-01,1.588392087201014324e-01,1.533549994981371345e-01,1.463081406453718425e-01,1.378409448639185686e-01,1.253155005186190052e-01,1.064613106393024200e-01,7.432805684927570877e-02,nan
nan,7.501122838112567193e-02,1.080093918211276482e-01,1.253139696117462065e-01,1.375383553685819993e-01,1.460513065878563665e-01,1.527934168273618609e-01,1.585109032674512086e-01,1.633204117321847837e-01,1.676517731933961086e-01,1.714989715791939151e-01,1.749934109278586114e-01,1.781992864541681043e-01,1.810596013062317211e-01,1.837810362798250330e-01,1.862624819503638229e-01,1.886040058863024393e-01,1.907387777069542434e-01,1.927922962622354019e-01,1.947251330087807486e-01,1.965242351016204814e-01,1.982318127006537090e-01,1.998570268366406111e-01,2.014179052188432295e-01,2.028841486962270069e-01,2.043159708900710025e-01,2.056644155418118070e-01,2.069630579577013685e-01,2.082106210277913094e-01,2.093939104364006265e-01,2.105409608706394486e-01,2.116452333442052636e-01,2.127021201556583141e-01,2.137071289453505996e-01,2.146822640387130443e-01,2.156116838071128194e-01,2.165052860135539547e-01,2.173576898767527188e-01,2.181617680319762331e-01,2.189155624988677884e-01,2.196265140291686901e-01,2.202926107772018582e-01,2.208770135502640397e-01,2.214209746251629973e-01,2.218752080977865193e-01,2.222707092800224882e-01,2.226027025238893065e-01,2.228390729155334260e-01,2.229980446455506748e-01,2.230696919115563448e-01,2.230569733045936198e-01,2.229656394398091268e-01,2.227782570564782461e-01,2.225136635434384613e-01,2.221697818536745583e-01,2.217586639047144370e-01,2.212669559566769195e-01,2.207099562392373093e-01,2.201015938138589645e-01,2.194226270677179513e-01,2.186981174040130149e-01,2.179149061977246060e-01,2.171104896622961800e-01,2.162442969549689398e-01,2.153384196082586688e-01,2.143861212620081225e-01,2.133825784823077665e-01,2.123755443031214163e-01,2.113078240689743592e-01,2.101870214106270895e-01,2.090328987243623704e-01,2.078204773458153243e-01,2.065757502466963880e-01,2.052567294647101304e-01,2.038943147060194860e-01,2.024832338742595383e-01,2.009907269126501306e-01,1.994304766608026303e-01,1.977875129832143974e-01,1.960580460194207841e-01,1.942519696773087889e-01,1.923266233269635694e-01,1.902975822417119767e-01,1.881721613423530393e-01,1.858565894867993951e-01,1.833632152219246692e-01,1.806915439571595283e-01,1.778124147094560237e-01,1.746593787173584822e-01,1.712531934424178226e-01,1.674272875350189815e-01,1.629956982444328017e-01,1.581269077644604226e-01,1.524040658771012302e-01,1.455793881711769100e-01,1.360945384990782658e-01,1.246370342422309929e-01,1.009302836906892376e-01,7.288444183804554388e-02,nan
nan,7.439812269176060422e-02,1.030339689020129956e-01,1.251207012329757506e-01,1.365674679667260305e-01,1.452362880421180225e-01,1.519128989788219031e-01,1.577125511357306276e-01,1.624939729715237369e-01,1.667908546432528283e-01,1.707072847639344859e-01,1.741654681592274267e-01,1.772694183197552065e-01,1.802329884113946235e-01,1.828929423138326849e-01,1.854063633429711422e-01,1.877106874849130136e-01,1.898572155510015180e-01,1.918931826714965205e-01,1.938162601335147173e-01,1.956263623567171817e-01,1.973273068391424578e-01,1.989490802204878783e-01,2.004919431048850786e-01,2.019785686742214814e-01,2.033796537387413117e-01,2.047256618365028424e-01,2.060037898561676850e-01,2.072341914711837707e-01,2.084086419942910440e-01,2.095459865275214051e-01,2.106191078314249565e-01,2.116480163964300776e-01,2.126551825120555905e-01,2.135897167732313529e-01,2.144962238990657521e-01,2.153704474645508071e-01,2.161858366443511204e-01,2.169575147785021696e-01,2.176843552321111597e-01,2.183502408145660545e-01,2.189794673572988126e-01,2.195330724046530846e-01,2.200387478719752488e-01,2.204740836212887856e-01,2.208493852725169349e-01,2.211441200573435739e-01,2.213538319274949706e-01,2.215184182813889624e-01,2.215708021670710626e-01,2.215674083892517632e-01,2.214742409641047016e-01,2.213022928422287150e-01,2.210636555469048248e-01,2.207485045887376540e-01,2.203530357300073628e-01,2.198990477860386927e-01,2.193810589831146074e-01,2.188001193640536357e-01,2.181664990752685274e-01,2.174630857861802324e-01,2.167345439823164521e-01,2.159449177778391404e-01,2.151114400594614506e-01,2.142301756797257983e-01,2.133116608353851085e-01,2.123482134083261863e-01,2.113474522687467938e-01,2.102849723915173885e-01,2.091935877259666898e-01,2.080444741344493753e-01,2.068585678836242225e-01,2.056202693718884311e-01,2.043179619447702544e-01,2.029764612361425746e-01,2.015626929401339862e-01,2.000746471951589389e-01,1.985204107763929859e-01,1.968885288771512199e-01,1.951703246089513955e-01,1.933725926636294390e-01,1.914377595769083951e-01,1.894176974334624841e-01,1.872486127305102999e-01,1.849574588302664857e-01,1.824690620042361267e-01,1.798332931778907906e-01,1.769622569015040781e-01,1.738435255577818195e-01,1.704043480509606634e-01,1.666022787119961213e-01,1.622629289485789938e-01,1.573308646754720264e-01,1.517737826263599599e-01,1.449284303889862291e-01,1.361930771490841297e-01,1.237277045114353047e-01,1.016417639396637596e-01,7.335931166630423050e-02,nan
nan,7.415172248305260116e-02,1.050706867734651079e-01,1.228490921605878000e-01,1.359481109005693800e-01,1.442871491487019153e-01,1.512078004824289335e-01,1.567296512384073748e-01,1.616583772585725165e-01,1.659428325687568040e-01,1.698243805973086440e-01,1.732595327025092113e-01,1.763698260986744093e-01,1.792972543639637650e-01,1.819423140392402161e-01,1.844231903306989273e-01,1.867462173257235236e-01,1.888978553940292016e-01,1.909423378571395158e-01,1.928589245213205294e-01,1.946590813854872648e-01,1.963677074542128920e-01,1.979793065498280658e-01,1.995271270137157493e-01,2.009738146255213298e-01,2.023866973007160397e-01,2.037230346237607903e-01,2.049934467121473369e-01,2.062076338663643427e-01,2.073834749214943096e-01,2.084822339381867118e-01,2.095506334302740803e-01,2.105681569746033488e-01,2.115360896749662878e-01,2.124698068356995206e-01,2.133608451377880522e-01,2.141850172165312149e-01,2.149829869958241602e-01,2.157243004807607445e-01,2.164220671893923309e-01,2.170748204016611504e-01,2.176553629350520824e-01,2.181954771241655655e-01,2.186720740093294479e-01,2.190850472561862161e-01,2.194295472482116760e-01,2.197166014889931074e-01,2.199138090898327125e-01,2.200542699485326104e-01,2.201113886237208161e-01,2.201044727129508050e-01,2.200179476371912357e-01,2.198639319434461392e-01,2.196420093503821114e-01,2.193349525079129059e-01,2.189591924823591496e-01,2.185391899636279223e-01,2.180499067204050290e-01,2.174888435347091253e-01,2.168825900435786269e-01,2.162161743871792163e-01,2.155183580459953119e-01,2.147615869696699042e-01,2.139437832329677824e-01,2.130833628959414305e-01,2.121895382289621379e-01,2.112373907051770527e-01,2.102701142550338909e-01,2.092330926620621367e-01,2.081551577523738372e-01,2.070223118943696206e-01,2.058494570916471478e-01,2.046203382269176085e-01,2.033492720583263413e-01,2.020039447596466420e-01,2.005745557269659751e-01,1.991161985478542840e-01,1.975594810076519159e-01,1.959410874466427088e-01,1.942426391660423413e-01,1.924220496658779478e-01,1.905299230847193881e-01,1.884807456976724249e-01,1.863344586343848586e-01,1.840204868705145047e-01,1.815641343424836962e-01,1.789460436107830899e-01,1.760728531807788932e-01,1.728922222414642773e-01,1.694781421113256137e-01,1.656255933669194824e-01,1.613864173501023958e-01,1.565295492855955373e-01,1.507619180208678855e-01,1.441247380532378330e-01,1.356628439182293588e-01,1.238043971522935494e-01,1.025801538687097780e-01,7.394513115868359132e-02,nan
nan,7.194050275685433260e-02,1.039328297969161763e-01,1.227967431428071965e-01,1.349004346626593021e-01,1.433077049022782323e-01,1.502375548837057984e-01,1.559042245038202990e-01,1.607859452323163463e-01,1.650457295307792560e-01,1.688619584231208504e-01,1.722944591098092559e-01,1.754385231721976024e-01,1.783323620610378635e-01,1.809904108762490638e-01,1.834459244041349024e-01,1.857420442775838398e-01,1.879093166730259612e-01,1.899310407792539901e-01,1.918500195219074445e-01,1.936560229844232761e-01,1.953414736051707901e-01,1.969656976067193366e-01,1.984893057282494100e-01,1.999525765459108928e-01,2.013329845017844399e-01,2.026684206417039003e-01,2.039225209675836203e-01,2.051400650258304870e-01,2.062848007116273585e-01,2.073895725645610311e-01,2.084367299693467013e-01,2.094436922923633981e-01,2.104002946954523501e-01,2.113034630550649773e-01,2.121675778057143247e-01,2.129769599928291457e-01,2.137532989907745262e-01,2.144627942282678890e-01,2.151450485465653539e-01,2.157638861295402277e-01,2.163269132177798593e-01,2.168379888460680027e-01,2.172973837403512909e-01,2.176836721935039298e-01,2.180178993454235381e-01,2.182762861564312429e-01,2.184790102932348543e-01,2.186004518424871368e-01,2.186611345212937652e-01,2.186489327222534695e-01,2.185589941296432470e-01,2.184302042477160588e-01,2.182142074761118378e-01,2.179183826890562503e-01,2.175671049362412346e-01,2.171666396627147388e-01,2.166915467183960775e-01,2.161704060679328077e-01,2.155878072611606966e-01,2.149584277665670395e-01,2.142696624914153247e-01,2.135269834934571120e-01,2.127416842926473373e-01,2.119088597143011787e-01,2.110221950108343569e-01,2.101185643081726062e-01,2.091362644916909541e-01,2.081277541336375436e-01,2.070568471584710579e-01,2.059540282926126398e-01,2.047897286473395195e-01,2.035603705969306343e-01,2.023045284104720287e-01,2.009661843668115178e-01,1.995538593889288892e-01,1.980975533407137168e-01,1.965469237460457930e-01,1.949080373749252360e-01,1.932251723115892272e-01,1.914152072610089683e-01,1.895297066849620793e-01,1.874939983804466692e-01,1.853450633871736031e-01,1.830502404387578108e-01,1.805945170432843583e-01,1.779417016808506891e-01,1.750675825165218524e-01,1.719868121451648690e-01,1.685416323196617938e-01,1.647089381866219393e-01,1.604606581625340200e-01,1.555903641981132846e-01,1.497727200564414607e-01,1.430155119172592804e-01,1.347064668969270018e-01,1.232306463984590983e-01,1.049941952165212161e-01,7.254110093191530606e-02,nan
nan,7.495922074508439004e-02,1.044262500029195240e-01,1.219906030609318737e-01,1.339343858126496867e-01,1.428508732749440846e-01,1.494665898841326390e-01,1.550184752615029748e-01,1.597255359306739841e-01,1.640524775855004835e-01,1.678321711323606524e-01,1.712694888536710203e-01,1.744102064733976110e-01,1.773035151045900537e-01,1.799356095824511670e-01,1.823909232249057433e-01,1.846765497899434672e-01,1.868425966288558837e-01,1.888557336716259749e-01,1.907610238550832282e-01,1.925641121207963824e-01,1.942699355291164776e-01,1.958680846123786734e-01,1.974100315664173988e-01,1.988588458205312604e-01,2.002342660965788501e-01,2.015534358802500703e-01,2.028172522012009205e-01,2.040061683258186376e-01,2.051486327968214396e-01,2.062501781477263374e-01,2.072742117299569975e-01,2.082642871825658992e-01,2.092068806457318964e-01,2.100993817926169183e-01,2.109373420026560142e-01,2.117352858750795319e-01,2.124673897793747934e-01,2.131835039051185043e-01,2.138213813102901040e-01,2.144364853674527727e-01,2.149787721985347844e-01,2.154509058225198004e-01,2.158936941902920292e-01,2.162727559588177861e-01,2.165924739408864874e-01,2.168358673780512724e-01,2.170269112070377371e-01,2.171509145366292137e-01,2.172013448543833047e-01,2.171902874859191479e-01,2.171157417552875002e-01,2.169832013552768502e-01,2.167794248501504761e-01,2.165013559399369125e-01,2.161699953887721293e-01,2.157816879049708758e-01,2.153265991288789705e-01,2.148278982908828905e-01,2.142631667022784070e-01,2.136497077786883025e-01,2.129761098531653962e-01,2.122759662137036762e-01,2.115112772912991213e-01,2.106839876665642652e-01,2.098548135596250974e-01,2.089440050399084536e-01,2.079836669412732930e-01,2.069769923174553661e-01,2.059155425946256057e-01,2.048132190784198725e-01,2.036670610903292822e-01,2.024523128049537934e-01,2.011910487124170532e-01,1.998642057035407982e-01,1.984782610877572351e-01,1.970245717676126218e-01,1.954773975292478649e-01,1.938576239600940387e-01,1.921687886416331148e-01,1.903701369111555908e-01,1.884385797328607115e-01,1.864572391089072689e-01,1.842690999082979841e-01,1.820234026610083600e-01,1.795740351463893103e-01,1.769373260332799402e-01,1.740707978823546331e-01,1.709771631341623077e-01,1.675126022518871605e-01,1.637407306991503497e-01,1.593807584482553885e-01,1.546326691951113719e-01,1.488936798461613920e-01,1.421130518213153393e-01,1.338700077221414153e-01,1.218053813388128154e-01,1.053437364498918810e-01,7.294216733719972867e-02,nan
nan,7.264997446562393435e-02,1.035464646138922473e-01,1.215118441689884976e-01,1.332884319920633054e-01,1.419159459016452740e-01,1.485786728625995146e-01,1.539624352023794829e-01,1.587077540757531324e-01,1.629486608381296997e-01,1.667824086494780200e-01,1.701704563683967275e-01,1.733223933118355209e-01,1.761643718932466296e-01,1.788151397676075449e-01,1.812606358024029252e-01,1.835601444123476644e-01,1.857230351117129807e-01,1.877548420559709830e-01,1.896349640749722953e-01,1.914313404576643007e-01,1.931365082537727373e-01,1.947235718183880360e-01,1.962492508941496017e-01,1.977083550767573528e-01,1.990808461897233261e-01,2.003914976679262439e-01,2.016537759822942810e-01,2.028355677599045226e-01,2.039590103954573297e-01,2.050397265189516927e-01,2.060557671051689854e-01,2.070390325199331638e-01,2.079634998922387512e-01,2.088437237951283332e-01,2.096702571885623589e-01,2.104583223485049781e-01,2.111796689857529941e-01,2.118645855041647041e-01,2.124899710642701445e-01,2.130739717648211240e-01,2.135996387555320342e-01,2.140686094139569451e-01,2.144900359641435106e-01,2.148497128494816222e-01,2.151568592084772691e-01,2.153920140392494298e-01,2.155718628436269491e-01,2.156859426698454207e-01,2.157405948771307647e-01,2.157321758543402079e-01,2.156433547197377232e-01,2.155255362637183980e-01,2.153279279037759175e-01,2.150654433152528466e-01,2.147512607340658353e-01,2.143717010282701896e-01,2.139431297160245271e-01,2.134551938859247933e-01,2.129128162004728098e-01,2.123058422827010794e-01,2.116601589951349061e-01,2.109681950622031565e-01,2.102298299368565437e-01,2.094292795414575414e-01,2.085902787673198366e-01,2.077010384130400789e-01,2.067695889138201626e-01,2.057825854149942235e-01,2.047207581813950683e-01,2.036368401080629331e-01,2.024972567750728814e-01,2.012874631221929222e-01,2.000312939652711397e-01,1.987257702581358698e-01,1.973416798956386942e-01,1.958744476220843911e-01,1.943507658609431865e-01,1.927401539819745824e-01,1.910345989399701849e-01,1.892591770980284749e-01,1.873857536251989087e-01,1.853370094342876584e-01,1.831948671059915601e-01,1.808835135117952131e-01,1.784882009809983794e-01,1.758231322863011703e-01,1.729682379212080789e-01,1.698438144325868648e-01,1.664656265220403886e-01,1.626642385423963111e-01,1.582945113660890746e-01,1.536484626670617248e-01,1.481010674217846379e-01,1.416611144591654881e-01,1.335413079354835497e-01,1.213530029313088510e-01,1.050258986118910998e-01,7.425756082324208585e-02,nan
nan,7.339805930458716265e-02,1.050056842953282499e-01,1.219490118276175677e-01,1.327356513730410248e-01,1.408738125677048425e-01,1.474796384462254417e-01,1.529548620013629900e-01,1.576729581573288463e-01,1.618595581807433514e-01,1.656213751303293735e-01,1.690248402163977148e-01,1.721021090125089970e-01,1.750052426492748614e-01,1.776453775052027062e-01,1.800862992222271863e-01,1.823975182235323400e-01,1.845376216080347742e-01,1.865377201792468298e-01,1.884369066588370556e-01,1.902328228128303267e-01,1.919201342440509106e-01,1.935158488672656385e-01,1.950456270194050878e-01,1.964951339458914092e-01,1.978710668773146220e-01,1.991690952393739555e-01,2.004187980499415322e-01,2.016006409479058070e-01,2.027199156872647734e-01,2.037769439965018137e-01,2.047983720424855214e-01,2.057570884148509360e-01,2.066806965287427689e-01,2.075378489245102986e-01,2.083509635939625459e-01,2.091239757492478479e-01,2.098343868922824540e-01,2.104946846495212021e-01,2.111082578170223878e-01,2.116882494225942879e-01,2.121955228632636803e-01,2.126430753719567579e-01,2.130487123642933467e-01,2.134038494378964201e-01,2.136927809233001574e-01,2.139282760770012670e-01,2.141007734125630890e-01,2.142088743329771394e-01,2.142594832723315745e-01,2.142568016580312096e-01,2.141720743331622101e-01,2.140510258862563242e-01,2.138551855454561001e-01,2.136212991661500249e-01,2.133107559814692855e-01,2.129526423579336802e-01,2.125261712507735823e-01,2.120561383355071550e-01,2.115302783024052280e-01,2.109389576963855428e-01,2.103009817638571977e-01,2.096288723445396684e-01,2.088895604238359960e-01,2.081184483761375770e-01,2.072959149614218011e-01,2.064150777680666682e-01,2.054872098444336381e-01,2.045120152259929380e-01,2.034763284986513543e-01,2.024107285580115101e-01,2.012671582489599931e-01,2.000649025951647397e-01,1.988255891750562998e-01,1.975204236505166411e-01,1.961211809138486417e-01,1.946860658931992283e-01,1.931606663536726276e-01,1.915424105399136101e-01,1.898462500923885909e-01,1.881072040595327122e-01,1.861981005598742911e-01,1.841860998153787565e-01,1.820131896698185536e-01,1.797398737967824678e-01,1.772776407494115469e-01,1.746812210573813751e-01,1.718182666207921094e-01,1.686651118198239652e-01,1.652981883458278234e-01,1.615488279960579365e-01,1.573566096041165707e-01,1.525902015503070863e-01,1.471057723599448752e-01,1.408058765661693301e-01,1.328231280983226958e-01,1.221753003062244769e-01,1.039640644519734120e-01,7.410904985545238577e-02,nan
nan,7.407831950492642370e-02,1.041250360848456347e-01,1.207060286927422177e-01,1.319039581294066954e-01,1.398159253413291114e-01,1.463607145035136226e-01,1.517535687102972430e-01,1.565065547783264233e-01,1.606268501388954939e-01,1.644331157195485504e-01,1.677614399912516763e-01,1.709068182767544686e-01,1.737376761019383820e-01,1.763999933630406025e-01,1.788480132588431415e-01,1.811235342189409236e-01,1.832770695484220447e-01,1.852878003089034886e-01,1.871831049360993815e-01,1.889578499117455235e-01,1.906616691051483126e-01,1.922462347896284063e-01,1.937601505623124942e-01,1.952160562236547048e-01,1.965788453192801599e-01,1.978865169153920522e-01,1.991190662211112794e-01,2.002836146794401417e-01,2.014087709949816396e-01,2.024811266994683556e-01,2.034737674789191542e-01,2.044261744888395127e-01,2.053315030086467763e-01,2.061879749293549224e-01,2.069821669312030266e-01,2.077443404938845439e-01,2.084367810671468590e-01,2.090902631271273071e-01,2.097033959251082269e-01,2.102482292138771469e-01,2.107504602450432085e-01,2.112010426153714537e-01,2.115785540294651268e-01,2.119181750522173835e-01,2.122025258456406160e-01,2.124295232292753854e-01,2.125978157763686038e-01,2.127014462679187590e-01,2.127578645118797240e-01,2.127395791667666958e-01,2.126686745254732225e-01,2.125501533419410782e-01,2.123780160211315438e-01,2.121325327241781467e-01,2.118323056311629538e-01,2.114864604166888651e-01,2.110764554848432173e-01,2.106227210410437367e-01,2.101033381492995733e-01,2.095289887025591491e-01,2.089148570322095222e-01,2.082401056532456329e-01,2.075289802321790278e-01,2.067682849802981448e-01,2.059449151513468024e-01,2.050808216674607221e-01,2.041560913803768251e-01,2.031864806202013374e-01,2.021797283347228358e-01,2.010945910402881509e-01,1.999798033967647437e-01,1.987842559431878819e-01,1.975489561393382887e-01,1.962354203128980346e-01,1.948661477437188538e-01,1.934229827987369865e-01,1.919025702071972539e-01,1.902924003687165855e-01,1.886108127627791897e-01,1.868724178065840624e-01,1.849137038216763229e-01,1.829062853990615634e-01,1.807906967430938927e-01,1.784777872164404200e-01,1.760608190376115045e-01,1.734141675856398224e-01,1.705920038026065844e-01,1.674756292597520124e-01,1.641080845100531260e-01,1.603951513895530423e-01,1.562153897734926689e-01,1.514828411002299147e-01,1.461822760419811129e-01,1.395973880816479273e-01,1.318199476758904476e-01,1.212518954541671745e-01,1.036635172920063186e-01,7.355331458530646460e-02,nan
nan,7.391704613782609790e-02,1.045351628937904731e-01,1.203195424621777421e-01,1.310022902345644169e-01,1.385653625630972052e-01,1.451447411779491770e-01,1.506892994627387905e-01,1.553153535749055569e-01,1.594446418339394711e-01,1.631328213620711620e-01,1.665461964981434506e-01,1.696102504396515831e-01,1.724571782346075721e-01,1.750810131864028452e-01,1.775281030369236512e-01,1.797944979083290762e-01,1.819482563921260843e-01,1.839341830942602674e-01,1.858443339302215946e-01,1.876420761965493789e-01,1.893226021592025188e-01,1.909305281238268814e-01,1.924278455504089547e-01,1.938632548722206694e-01,1.952328671022382778e-01,1.965386228032424965e-01,1.977518934648256066e-01,1.989268734493457036e-01,2.000320438206528717e-01,2.010929690163768546e-01,2.020973689302572596e-01,2.030337410174076207e-01,2.039265450781577449e-01,2.047696969678524936e-01,2.055737380087288013e-01,2.063162208318926882e-01,2.069937674856672516e-01,2.076408276530728458e-01,2.082314232618170946e-01,2.087821037277283742e-01,2.092629039757970544e-01,2.096997756901062271e-01,2.100789916108478372e-01,2.103967181050975244e-01,2.106732840732296053e-01,2.108969114741544582e-01,2.110470721490224077e-01,2.111612158119378635e-01,2.112080805717939658e-01,2.112024130594654103e-01,2.111404112255270971e-01,2.110234900032904592e-01,2.108341831726407434e-01,2.106088301978822630e-01,2.103260624281280133e-01,2.099780353147691070e-01,2.095906401467474700e-01,2.091296226469573916e-01,2.086043448300921033e-01,2.080585309074043376e-01,2.074665303362224211e-01,2.068073005314423063e-01,2.061038339327980751e-01,2.053475659499505723e-01,2.045435242378223495e-01,2.036854597320997273e-01,2.027803560065290223e-01,2.018267949083428214e-01,2.008046461485870904e-01,1.997562699078655468e-01,1.986200766066940626e-01,1.974465225950663705e-01,1.961974813167743359e-01,1.948941335729842406e-01,1.935115696090216053e-01,1.920773899896441039e-01,1.905829028196304176e-01,1.889693962255324933e-01,1.872881271358141642e-01,1.855213945368039408e-01,1.836398858763402808e-01,1.816027957207594634e-01,1.794621055968790568e-01,1.771957681566164733e-01,1.747494318631174770e-01,1.721245992916639600e-01,1.692911428720364209e-01,1.662248372848823541e-01,1.627758749592554399e-01,1.591213431639427189e-01,1.549127204369973032e-01,1.503431032094425523e-01,1.451971587813326581e-01,1.385095961394338659e-01,1.306526580865863263e-01,1.199394609133360712e-01,1.038791587538391153e-01,7.394531095526782338e-02,nan
nan,7.287748332744634072e-02,1.033820770599516992e-01,1.194118416203952537e-01,1.295230658509131105e-01,1.376001257167117353e-01,1.440623212052845603e-01,1.493723322803688913e-01,1.539300920838141962e-01,1.580925314675275251e-01,1.617650022047510128e-01,1.651900692964215767e-01,1.682417731396375071e-01,1.710209267893778584e-01,1.737010128554457578e-01,1.761342196245378744e-01,1.783812672679244982e-01,1.805613874119738060e-01,1.825713848961585117e-01,1.844347575049836707e-01,1.862259549743245923e-01,1.879196263135308187e-01,1.894983604711563685e-01,1.910182287018843406e-01,1.924456979190572181e-01,1.938138335585808392e-01,1.951015751709563872e-01,1.963401962736526785e-01,1.974954659580299698e-01,1.986024369301406800e-01,1.996584605363756759e-01,2.006391727109363143e-01,2.015902838819871867e-01,2.024714211313458356e-01,2.033026512202947833e-01,2.040967630516886122e-01,2.048227582941734570e-01,2.055150185737726898e-01,2.061280978947184761e-01,2.067111522522731004e-01,2.072361344216414047e-01,2.077230105567683394e-01,2.081348333868783262e-01,2.085239764540603724e-01,2.088438859370493617e-01,2.090987405190884441e-01,2.093088430898505381e-01,2.094810051802296902e-01,2.095796053977760365e-01,2.096288289497859614e-01,2.096153309374570450e-01,2.095553662475895806e-01,2.094240987577624113e-01,2.092690050811625291e-01,2.090309142319076163e-01,2.087461043853768294e-01,2.084098652893071613e-01,2.080299759893802780e-01,2.075880600845606827e-01,2.070965791572536019e-01,2.065414249434205929e-01,2.059555771282313430e-01,2.053094736607914417e-01,2.046148968295229964e-01,2.038631209863103755e-01,2.030683584221402715e-01,2.022213344039170690e-01,2.013275785694066955e-01,2.003737771487956176e-01,1.993766520867924219e-01,1.983308400443285491e-01,1.972057450999362416e-01,1.960374253716175574e-01,1.947958630439604877e-01,1.934989702558461977e-01,1.921263367458890814e-01,1.906775326153220540e-01,1.891497759763904885e-01,1.875688647986467061e-01,1.858826268255923120e-01,1.841124781368247143e-01,1.822247210618169466e-01,1.802108691446972777e-01,1.780862168070503904e-01,1.758124308116003065e-01,1.733661547412786164e-01,1.706675129389863543e-01,1.679084983627555094e-01,1.648588033728461411e-01,1.614485095078185273e-01,1.578006920821859449e-01,1.536820491026388014e-01,1.490265269892976918e-01,1.438706383813292411e-01,1.375476704510243953e-01,1.298812535186974482e-01,1.189551927519054558e-01,1.010577770784599760e-01,7.267215874766505546e-02,nan
